ply
format ascii 1.0
element vertex 1207
property float32 x
property float32 y
property float32 z
property uchar red
property uchar green
property uchar blue
end_header
0.2704116 0.01206353 0.6620001 8 12 7 
0.2788272 0.01206353 0.6620001 6 10 5 
0.2842054 0.01193597 0.655 11 11 11 
0.2889591 0.01179019 0.647 33 30 25 
0.295806 0.01173552 0.6440001 63 59 50 
0.3049368 0.01177197 0.646 81 74 66 
0.3136337 0.01179019 0.647 87 83 74 
0.3213612 0.01177197 0.646 88 84 75 
-0.01715929 0.006914353 0.349 75 63 61 
-0.01268623 0.006894541 0.348 135 112 109 
-0.008214857 0.006854917 0.346 174 151 150 
-0.003816392 0.006854917 0.346 196 173 172 
0.0005837561 0.006874729 0.347 200 184 181 
0.005023723 0.006914353 0.349 194 177 177 
0.009487432 0.006934165 0.35 192 173 171 
0.01393675 0.006934165 0.35 193 178 177 
0.01843859 0.006953977 0.351 178 163 162 
0.02290062 0.006953977 0.351 176 164 162 
0.02744061 0.006973789 0.352 166 155 150 
0.03191534 0.006973789 0.352 176 160 157 
0.03649346 0.006993601 0.353 173 163 161 
0.04098092 0.006993601 0.353 168 158 158 
0.04546836 0.006993601 0.353 162 152 150 
0.04995582 0.006993601 0.353 170 162 159 
0.0545975 0.007013412 0.354 188 180 177 
0.05959849 0.007072848 0.357 196 191 189 
0.06431645 0.00709266 0.358 190 178 176 
0.08182899 0.007033224 0.355 128 101 93 
0.08609865 0.007013412 0.354 142 119 114 
0.09059881 0.007013412 0.354 151 130 127 
0.09509898 0.007013412 0.354 170 154 151 
0.2365688 0.01424476 0.719 3 7 2 
0.2436585 0.01412588 0.7130001 78 56 48 
0.2495324 0.01394758 0.7040001 63 41 33 
0.2555445 0.01378908 0.696 52 34 25 
0.2609735 0.01361077 0.687 12 12 6 
0.2614625 0.01319472 0.666 9 13 8 
0.2679024 0.01309566 0.661 8 12 7 
0.2767233 0.01311548 0.6620001 8 9 5 
0.2838467 0.01305604 0.659 10 11 7 
0.2877898 0.01285792 0.649 34 35 26 
0.2942155 0.01277868 0.645 67 65 55 
0.3028838 0.01279849 0.646 82 75 65 
0.3115775 0.0128183 0.647 88 84 75 
0.3198024 0.0128183 0.647 94 90 81 
-0.01826844 0.007468928 0.349 51 54 73 
-0.0137922 0.007447527 0.348 119 100 96 
-0.009341394 0.007426126 0.347 164 141 140 
-0.004916008 0.007404726 0.346 189 166 165 
-0.0005190383 0.007426126 0.347 198 181 181 
0.003903356 0.007447527 0.348 197 180 180 
0.008375105 0.007490329 0.35 192 175 175 
0.01282442 0.007490329 0.35 193 179 175 
0.01732309 0.00751173 0.351 183 168 167 
0.02178511 0.00751173 0.351 175 163 161 
0.02632192 0.007533131 0.352 164 152 150 
0.03079666 0.007533131 0.352 173 157 154 
0.0353716 0.007554532 0.353 176 161 160 
0.03985905 0.007554532 0.353 168 158 156 
0.0443465 0.007554532 0.353 171 161 159 
0.04883396 0.007554532 0.353 169 159 157 
0.05347246 0.007575933 0.354 183 173 171 
0.05830015 0.007618735 0.356 198 190 187 
0.06300222 0.007640136 0.357 194 184 182 
0.0679189 0.007682938 0.359 166 155 150 
0.08295721 0.007597334 0.355 134 107 99 
0.08722369 0.007575933 0.354 145 122 119 
0.09172384 0.007575933 0.354 160 139 136 
0.09649583 0.007597334 0.355 177 166 161 
0.2365688 0.01538728 0.719 3 7 2 
0.2436585 0.01525887 0.7130001 72 45 39 
0.2495324 0.01506626 0.7040001 66 46 38 
0.2559117 0.01491646 0.697 51 32 26 
0.2617332 0.01474525 0.689 14 11 6 
0.2614625 0.01425303 0.666 9 13 8 
0.2674972 0.01412462 0.66 10 11 7 
0.2763053 0.01414602 0.661 9 10 6 
0.2842774 0.01412462 0.66 12 13 9 
0.2882332 0.01391061 0.65 49 45 38 
0.2946716 0.01382501 0.646 71 69 59 
0.3028838 0.01382501 0.646 85 78 68 
0.3115775 0.01384641 0.647 91 87 78 
0.3198024 0.01384641 0.647 99 92 84 
-0.01832079 0.008046494 0.35 52 61 82 
-0.0137922 0.008000514 0.348 119 100 96 
-0.009341394 0.007977524 0.347 161 138 137 
-0.004916008 0.007954534 0.346 186 163 162 
-0.0005190383 0.007977524 0.347 198 181 181 
0.003903356 0.008000514 0.348 198 181 181 
0.008375105 0.008046494 0.35 192 175 175 
0.01282442 0.008046494 0.35 193 179 175 
0.01732309 0.008069484 0.351 184 170 166 
0.02178511 0.008069484 0.351 175 163 161 
0.02632192 0.008092474 0.352 166 154 152 
0.03079666 0.008092474 0.352 173 157 154 
0.0353716 0.008115464 0.353 175 160 159 
0.03985905 0.008115464 0.353 165 155 153 
0.0443465 0.008115464 0.353 169 157 155 
0.04883396 0.008115464 0.353 169 159 157 
0.05347246 0.008138454 0.354 181 171 169 
0.05813639 0.008161443 0.355 197 187 185 
0.06300222 0.008207424 0.357 195 183 181 
0.0677297 0.008230413 0.358 158 144 140 
0.08295721 0.008161443 0.355 135 108 100 
0.08722369 0.008138454 0.354 147 124 121 
0.09172384 0.008138454 0.354 166 147 145 
0.09649583 0.008161443 0.355 179 170 165 
0.2412389 0.01846096 0.803 77 75 67 
0.2365688 0.0165298 0.719 3 7 2 
0.2433168 0.01636887 0.712 71 44 38 
0.2495324 0.01618495 0.7040001 68 47 42 
0.2562789 0.01604701 0.698 48 29 23 
0.262493 0.01588608 0.691 13 13 7 
0.2614625 0.01531133 0.666 9 13 8 
0.2674972 0.01517339 0.66 10 11 7 
0.2763053 0.01519638 0.661 9 10 6 
0.2842774 0.01517339 0.66 19 19 15 
0.28912 0.01498947 0.652 61 54 48 
0.2951277 0.01487452 0.647 73 69 60 
0.3028838 0.01485153 0.646 87 80 70 
0.3115775 0.01487452 0.647 92 88 77 
0.3202966 0.01489751 0.648 99 92 84 
-0.01832079 0.008602658 0.35 61 77 96 
-0.0137922 0.0085535 0.348 117 98 94 
-0.009341394 0.008528921 0.347 161 135 135 
-0.004916008 0.008504342 0.346 185 162 161 
-0.0005190383 0.008528921 0.347 198 181 181 
0.003903356 0.0085535 0.348 198 181 181 
0.008351175 0.008578079 0.349 192 175 175 
0.01282442 0.008602658 0.35 192 177 176 
0.01732309 0.008627237 0.351 185 171 167 
0.02178511 0.008627237 0.351 174 163 158 
0.02632192 0.008651816 0.352 167 155 153 
0.03079666 0.008651816 0.352 172 157 156 
0.0353716 0.008676395 0.353 175 160 159 
0.03985905 0.008676395 0.353 161 149 147 
0.0443465 0.008676395 0.353 168 156 154 
0.04883396 0.008676395 0.353 168 160 157 
0.05332141 0.008676395 0.353 180 170 168 
0.05813639 0.008725554 0.355 195 185 183 
0.06300222 0.008774712 0.357 196 184 182 
0.0677297 0.00879929 0.358 159 143 138 
0.08295721 0.008725554 0.355 136 109 101 
0.08747008 0.008725554 0.355 148 127 124 
0.09172384 0.008700974 0.354 166 150 147 
0.09649583 0.008725554 0.355 181 174 168 
0.2370171 0.01981069 0.8060001 211 209 188 
0.233612 0.01779521 0.724 3 7 2 
0.2397973 0.017574 0.715 64 50 35 
0.2467981 0.01742653 0.7090001 82 62 54 
0.2525639 0.01720532 0.7 49 29 21 
0.260342 0.01713158 0.697 47 36 29 
0.2626365 0.01671373 0.68 12 13 7 
0.2641 0.01627131 0.6620001 8 12 7 
0.2716922 0.01622215 0.66 10 11 7 
0.2805067 0.01624673 0.661 10 11 7 
0.2871612 0.01614842 0.657 56 54 46 
0.2923647 0.01597637 0.65 80 71 64 
0.2987777 0.01587805 0.646 88 79 70 
0.3065147 0.01585347 0.645 90 88 76 
0.31569 0.01590263 0.647 101 94 84 
0.3229135 0.01585347 0.645 106 102 93 
-0.01605014 0.009132654 0.349 84 68 65 
-0.01154698 0.009080318 0.347 140 119 116 
-0.007135805 0.009080318 0.347 171 144 147 
-0.002716775 0.00905415 0.346 193 173 174 
0.00168655 0.009080318 0.347 199 182 182 
0.006132873 0.009132654 0.349 197 180 180 
0.01056948 0.009132654 0.349 190 173 173 
0.01504908 0.009158823 0.35 192 177 176 
0.0195541 0.00918499 0.351 179 165 161 
0.02401613 0.00918499 0.351 169 157 155 
0.02847815 0.00918499 0.351 168 156 154 
0.03303403 0.009211159 0.352 176 161 160 
0.03761533 0.009237327 0.353 173 161 159 
0.04210278 0.009237327 0.353 164 149 148 
0.04659023 0.009237327 0.353 168 160 157 
0.05107768 0.009237327 0.353 171 161 159 
0.05572254 0.009263494 0.354 191 179 177 
0.06056295 0.009315831 0.356 199 189 187 
0.06527137 0.009341999 0.357 190 173 173 
0.07866529 0.009315831 0.356 120 88 82 
0.08295721 0.009289663 0.355 137 110 102 
0.08747008 0.009289663 0.355 152 131 128 
0.09198295 0.009289663 0.355 167 151 148 
0.09622401 0.009263494 0.354 182 175 169 
0.2370171 0.02109146 0.8060001 206 203 187 
0.233612 0.01894568 0.724 3 7 2 
0.2397973 0.01871017 0.715 71 57 42 
0.2467981 0.01855316 0.7090001 90 68 58 
0.2525639 0.01831765 0.7 48 27 22 
0.260342 0.01823914 0.697 50 39 32 
0.2630228 0.01782045 0.6810001 12 13 7 
0.2641 0.01732326 0.6620001 9 13 8 
0.2716922 0.01727092 0.66 10 11 7 
0.2805067 0.01729709 0.661 13 14 10 
0.2871612 0.01719242 0.657 63 61 51 
0.2923647 0.01700924 0.65 82 73 66 
0.2987777 0.01690457 0.646 90 81 72 
0.3065147 0.0168784 0.645 91 87 76 
0.315202 0.01690457 0.646 99 95 84 
0.3224129 0.01685223 0.6440001 107 103 94 
-0.01605014 0.009687229 0.349 83 67 64 
-0.01154698 0.009631715 0.347 137 116 115 
-0.007135805 0.009631715 0.347 171 144 147 
-0.002716775 0.009603958 0.346 192 173 171 
0.00168655 0.009631715 0.347 199 182 182 
0.006115301 0.009659472 0.348 197 180 180 
0.01056948 0.009687229 0.349 190 173 173 
0.01504908 0.009714986 0.35 190 176 172 
0.0195541 0.009742743 0.351 178 164 160 
0.02401613 0.009742743 0.351 173 159 155 
0.02847815 0.009742743 0.351 167 157 155 
0.03303403 0.0097705 0.352 176 161 160 
0.03761533 0.009798258 0.353 173 161 159 
0.04210278 0.009798258 0.353 168 153 152 
0.04659023 0.009798258 0.353 168 158 156 
0.05107768 0.009798258 0.353 171 161 159 
0.05572254 0.009826015 0.354 185 173 171 
0.06056295 0.009881529 0.356 196 186 184 
0.06527137 0.009909286 0.357 190 174 171 
0.07866529 0.009881529 0.356 120 90 83 
0.08295721 0.009853772 0.355 141 114 108 
0.08747008 0.009853772 0.355 152 133 129 
0.09198295 0.009853772 0.355 172 156 153 
0.09622401 0.009826015 0.354 186 177 172 
0.2338738 0.02231671 0.804 213 208 190 
0.2443981 0.02234447 0.8050001 47 56 49 
0.2352613 0.02004063 0.7220001 3 7 2 
0.2413926 0.01979082 0.7130001 83 58 49 
0.2479976 0.01959652 0.706 90 72 61 
0.2544246 0.01940222 0.6990001 41 22 16 
0.2621804 0.01931894 0.696 31 23 20 
0.2628506 0.01873604 0.675 12 13 7 
0.2662039 0.0183752 0.6620001 7 11 6 
0.2737897 0.01831969 0.66 9 10 6 
0.2826074 0.01834745 0.661 32 32 26 
0.288809 0.01820866 0.656 77 70 62 
0.2939775 0.01801436 0.649 81 72 65 
0.2998994 0.01787558 0.6440001 91 82 73 
0.3085645 0.01790333 0.645 92 90 78 
0.3162729 0.01787558 0.6440001 99 95 84 
0.3229481 0.0177923 0.641 115 108 100 
-0.01494099 0.0102418 0.349 101 80 79 
-0.01044419 0.01018311 0.347 144 123 122 
-0.00603301 0.01018311 0.347 176 150 150 
-0.001621833 0.01018311 0.347 193 176 176 
0.002789345 0.01018311 0.347 198 181 181 
0.007221274 0.01021246 0.348 193 176 176 
0.01167863 0.0102418 0.349 191 174 174 
0.0161614 0.01027115 0.35 187 173 169 
0.02066961 0.0103005 0.351 174 158 155 
0.02513163 0.0103005 0.351 172 163 158 
0.02959366 0.0103005 0.351 170 158 156 
0.03424974 0.01035919 0.353 176 161 160 
0.03873719 0.01035919 0.353 164 152 150 
0.04322464 0.01035919 0.353 166 149 149 
0.04771209 0.01035919 0.353 168 160 159 
0.05219955 0.01035919 0.353 171 159 157 
0.05684758 0.01038853 0.354 187 175 173 
0.06169434 0.01044723 0.356 199 187 185 
0.06640594 0.01047657 0.357 186 167 163 
0.0775339 0.01044723 0.356 117 85 79 
0.08182899 0.01041788 0.355 139 112 106 
0.08634187 0.01041788 0.355 147 128 122 
0.09085474 0.01041788 0.355 170 154 151 
0.09509898 0.01038853 0.354 184 173 168 
0.2310309 0.02356496 0.803 221 214 193 
0.2415393 0.0235943 0.804 77 75 67 
0.2342574 0.0213053 0.726 3 7 2 
0.239462 0.02095315 0.714 76 64 48 
0.2467981 0.02080642 0.7090001 93 71 61 
0.2529247 0.02057165 0.701 51 35 28 
0.2607155 0.02048361 0.698 52 41 32 
0.263409 0.02001407 0.682 15 16 10 
0.2648979 0.01948584 0.664 9 13 8 
0.2716922 0.01936845 0.66 10 11 7 
0.2800823 0.01936845 0.66 23 24 18 
0.2875983 0.01930976 0.6580001 70 71 60 
0.2928145 0.01910434 0.651 86 79 71 
0.2983152 0.01892826 0.645 95 86 77 
0.3060394 0.01889892 0.6440001 94 87 77 
0.3142262 0.01889892 0.6440001 103 96 86 
0.320911 0.01881088 0.641 113 106 98 
-0.01489818 0.01076545 0.348 99 78 77 
-0.01044419 0.01073451 0.347 141 120 119 
-0.00603301 0.01073451 0.347 174 148 148 
-0.001621833 0.01073451 0.347 192 175 175 
0.002789345 0.01073451 0.347 195 178 178 
0.007221274 0.01076545 0.348 194 177 177 
0.01167863 0.01079638 0.349 191 174 174 
0.0161614 0.01082732 0.35 187 173 169 
0.02066961 0.01085825 0.351 172 156 153 
0.02513163 0.01085825 0.351 173 163 161 
0.02959366 0.01085825 0.351 170 158 156 
0.03424974 0.01092012 0.353 176 161 160 
0.03873719 0.01092012 0.353 167 155 153 
0.04322464 0.01092012 0.353 165 148 148 
0.04771209 0.01092012 0.353 169 159 159 
0.05219955 0.01092012 0.353 173 161 159 
0.05684758 0.01095106 0.354 183 171 169 
0.06152105 0.01098199 0.355 199 187 185 
0.06621993 0.01101293 0.356 190 174 171 
0.07207882 0.01104386 0.357 111 124 123 
0.0775339 0.01101293 0.356 125 88 83 
0.08182899 0.01098199 0.355 139 112 106 
0.08634187 0.01098199 0.355 150 131 125 
0.09085474 0.01098199 0.355 171 154 154 
0.09509898 0.01095106 0.354 187 176 171 
0.2307432 0.02481002 0.802 217 212 190 
0.2412389 0.02484095 0.803 80 78 70 
0.2342574 0.02245894 0.726 3 7 2 
0.239462 0.02208772 0.714 76 63 50 
0.2467981 0.02193305 0.7090001 91 71 61 
0.2529247 0.02168556 0.701 59 43 36 
0.2607155 0.02159276 0.698 56 42 34 
0.2637952 0.02112873 0.683 15 17 8 
0.2656957 0.02060283 0.666 8 12 7 
0.2721038 0.02044816 0.661 10 11 7 
0.2800823 0.02041722 0.66 30 31 22 
0.2871612 0.02032442 0.657 76 74 64 
0.2928145 0.02013881 0.651 88 81 73 
0.2983152 0.0199532 0.645 96 87 78 
0.3055642 0.01989132 0.643 95 88 78 
0.3137382 0.01989132 0.643 103 96 86 
0.3199097 0.01976758 0.6390001 114 107 99 
-0.01489818 0.01131843 0.348 97 78 76 
-0.01044419 0.01128591 0.347 140 117 116 
-0.00603301 0.01128591 0.347 173 147 147 
-0.001621833 0.01128591 0.347 191 174 176 
0.002789345 0.01128591 0.347 195 178 178 
0.007221274 0.01131843 0.348 196 176 177 
0.01167863 0.01135095 0.349 191 174 174 
0.0161614 0.01138348 0.35 187 173 169 
0.02066961 0.011416 0.351 173 157 154 
0.02513163 0.011416 0.351 174 164 162 
0.02959366 0.011416 0.351 170 158 156 
0.03424974 0.01148105 0.353 177 162 161 
0.03873719 0.01148105 0.353 168 156 154 
0.04322464 0.01148105 0.353 164 149 148 
0.04771209 0.01148105 0.353 167 157 155 
0.05219955 0.01148105 0.353 173 161 159 
0.05684758 0.01151358 0.354 182 167 166 
0.06152105 0.0115461 0.355 199 184 183 
0.06621993 0.01157862 0.356 200 183 183 
0.07207882 0.01161115 0.357 109 122 119 
0.07640251 0.01157862 0.356 176 152 140 
0.08092809 0.01157862 0.356 133 103 96 
0.08521365 0.0115461 0.355 148 127 122 
0.08972652 0.0115461 0.355 166 150 147 
0.09397393 0.01151358 0.354 184 173 168 
0.2250828 0.02601938 0.8 215 213 194 
0.2361349 0.02611695 0.803 208 206 185 
0.2315407 0.02380773 0.7320001 4 8 3 
0.2368978 0.02341744 0.72 3 6 5 
0.242975 0.02312472 0.711 83 61 53 
0.2498868 0.02292958 0.705 82 64 55 
0.256646 0.02273444 0.6990001 52 37 27 
0.2636326 0.02257181 0.694 34 25 18 
0.2642106 0.0218888 0.673 13 14 8 
0.2691183 0.02159609 0.664 10 14 9 
0.2758873 0.02146599 0.66 16 17 13 
0.283416 0.02140094 0.6580001 63 58 54 
0.2900069 0.02127085 0.654 88 81 73 
0.2951277 0.02104317 0.647 91 82 73 
0.3014772 0.02091308 0.643 94 87 77 
0.3096512 0.02091308 0.643 100 93 83 
0.3163424 0.0208155 0.64 108 101 93 
-0.01715929 0.01190553 0.349 58 54 59 
-0.01268623 0.01187142 0.348 120 97 94 
-0.0082386 0.0118373 0.347 162 134 135 
-0.003827421 0.0118373 0.347 183 156 159 
0.0005837561 0.0118373 0.347 195 178 178 
0.004994933 0.0118373 0.347 197 177 178 
0.009433218 0.01187142 0.348 194 174 175 
0.01389693 0.01190553 0.349 190 175 174 
0.01843859 0.01197376 0.351 178 159 157 
0.02290062 0.01197376 0.351 175 163 161 
0.02736265 0.01197376 0.351 174 164 162 
0.03191534 0.01200787 0.352 173 158 157 
0.03649346 0.01204198 0.353 172 162 160 
0.04098092 0.01204198 0.353 167 155 153 
0.04546836 0.01204198 0.353 163 148 147 
0.04995582 0.01204198 0.353 172 162 160 
0.05444327 0.01204198 0.353 176 164 162 
0.05909766 0.0120761 0.354 186 169 169 
0.06377748 0.01211021 0.355 200 185 184 
0.06848272 0.01214432 0.356 189 170 168 
0.0732134 0.01217844 0.357 185 183 173 
0.0775339 0.01214432 0.356 133 98 93 
0.08205949 0.01214432 0.356 140 110 105 
0.08634187 0.01211021 0.355 152 133 129 
0.09085474 0.01211021 0.355 175 160 159 
0.09509898 0.0120761 0.354 189 178 173 
0.2273407 0.0272565 0.799 184 183 166 
0.2386869 0.02739295 0.803 211 209 190 
0.2335475 0.0249368 0.731 4 8 3 
0.2378572 0.0244251 0.716 13 8 4 
0.2448898 0.02422042 0.71 95 75 67 
0.2514121 0.02398163 0.703 52 31 28 
0.2588675 0.02384518 0.6990001 66 53 42 
0.264306 0.02353816 0.6900001 22 20 10 
0.2651622 0.02285589 0.67 11 12 6 
0.2708201 0.0226171 0.663 13 14 10 
0.2779848 0.02251476 0.66 32 33 24 
0.2850733 0.02241242 0.657 75 71 62 
0.2911922 0.02224185 0.652 92 85 75 
0.2967246 0.02203717 0.646 95 88 78 
0.3030486 0.02190072 0.642 94 87 77 
0.3107252 0.0218666 0.641 102 95 85 
0.3173814 0.02176426 0.638 113 106 100 
-0.01600415 0.0124244 0.348 78 62 59 
-0.01154698 0.0123887 0.347 125 102 99 
-0.007135805 0.0123887 0.347 165 137 136 
-0.002724627 0.0123887 0.347 186 164 166 
0.00168655 0.0123887 0.347 195 178 178 
0.006097728 0.0123887 0.347 197 177 178 
0.01053919 0.0124244 0.348 193 173 174 
0.01504908 0.01249581 0.35 186 171 170 
0.0195541 0.01253151 0.351 178 159 157 
0.02401613 0.01253151 0.351 178 168 166 
0.02847815 0.01253151 0.351 169 159 157 
0.03303403 0.01256721 0.352 173 161 159 
0.03761533 0.01260292 0.353 172 162 160 
0.04210278 0.01260292 0.353 164 152 150 
0.04659023 0.01260292 0.353 164 152 150 
0.05107768 0.01260292 0.353 172 162 160 
0.05556513 0.01260292 0.353 175 163 161 
0.0602227 0.01263862 0.354 188 169 167 
0.06508853 0.01271002 0.356 201 186 185 
0.06980968 0.01274572 0.357 177 163 159 
0.07434797 0.01274572 0.357 213 207 192 
0.07866529 0.01271002 0.356 137 107 102 
0.08319089 0.01271002 0.356 145 118 110 
0.08747008 0.01267432 0.355 160 141 137 
0.09198295 0.01267432 0.355 177 165 163 
0.09649583 0.01267432 0.355 194 183 174 
0.22988 0.02852614 0.799 219 214 194 
0.2409384 0.02863325 0.802 24 22 31 
0.2349027 0.02599128 0.728 3 7 2 
0.239462 0.02549145 0.714 65 52 41 
0.2467981 0.02531294 0.7090001 87 67 59 
0.2529247 0.02502732 0.701 42 26 21 
0.2607155 0.02492021 0.698 58 50 38 
0.2645677 0.02445608 0.6850001 18 19 10 
0.2664936 0.02384914 0.668 9 13 6 
0.2729272 0.02367063 0.663 11 12 8 
0.279658 0.02352782 0.659 50 48 38 
0.2862871 0.02338501 0.655 85 81 70 
0.2923647 0.0232065 0.65 94 87 77 
0.2983152 0.02302799 0.645 96 89 79 
0.305089 0.02292088 0.642 95 88 78 
0.3122745 0.02284948 0.64 102 95 85 
0.319409 0.02277807 0.638 115 108 102 
-0.0137922 0.01297739 0.348 103 82 79 
-0.009341394 0.0129401 0.347 144 118 118 
-0.004930216 0.0129401 0.347 174 148 148 
-0.0005175425 0.01290281 0.346 192 175 175 
0.003892139 0.0129401 0.347 194 174 175 
0.008327247 0.01297739 0.348 197 177 178 
0.01278778 0.01301468 0.349 191 176 175 
0.01732309 0.01308926 0.351 183 169 165 
0.02178511 0.01308926 0.351 178 167 162 
0.02624714 0.01308926 0.351 179 169 167 
0.03079666 0.01312656 0.352 173 161 159 
0.0353716 0.01316385 0.353 173 161 159 
0.03985905 0.01316385 0.353 166 156 154 
0.0443465 0.01316385 0.353 163 148 147 
0.04883396 0.01316385 0.353 171 161 159 
0.05332141 0.01316385 0.353 172 162 160 
0.05797262 0.01320114 0.354 179 160 158 
0.06264926 0.01323843 0.355 192 175 175 
0.06735133 0.01327572 0.356 198 183 182 
0.07207882 0.01331301 0.357 100 93 87 
0.07640251 0.01327572 0.356 133 104 94 
0.08092809 0.01327572 0.356 131 101 94 
0.08521365 0.01323843 0.355 154 131 126 
0.08972652 0.01323843 0.355 171 156 155 
0.0942394 0.01323843 0.355 188 176 174 
0.2270562 0.0297585 0.798 215 213 192 
0.2383896 0.02990766 0.802 225 217 203 
0.2335475 0.02725998 0.731 4 8 3 
0.2381894 0.0267379 0.717 24 20 13 
0.2448898 0.02647686 0.71 96 76 68 
0.2514121 0.02621582 0.703 47 26 25 
0.2588675 0.02606666 0.6990001 64 51 40 
0.264306 0.02573103 0.6900001 25 23 15 
0.2655579 0.0250225 0.671 13 14 5 
0.2716371 0.02479875 0.665 15 16 12 
0.2779848 0.02461229 0.66 41 37 30 
0.2846394 0.02446312 0.656 82 75 65 
0.2907456 0.02427667 0.651 93 86 76 
0.2962653 0.02405292 0.645 96 89 79 
0.3030486 0.02394105 0.642 94 87 77 
0.3102405 0.02386647 0.64 100 93 83 
0.3173814 0.02379188 0.638 114 105 100 
-0.01489818 0.01353038 0.348 86 70 65 
-0.01044419 0.0134915 0.347 133 110 109 
-0.00603301 0.0134915 0.347 168 142 142 
-0.001617159 0.01345262 0.346 190 168 170 
0.002781306 0.01345262 0.346 194 172 174 
0.007200522 0.0134915 0.347 197 176 175 
0.01167863 0.01356926 0.349 191 175 172 
0.0161614 0.01360814 0.35 184 170 166 
0.02066961 0.01364702 0.351 180 166 162 
0.02513163 0.01364702 0.351 179 169 169 
0.02959366 0.01364702 0.351 171 159 157 
0.03424974 0.01372478 0.353 173 161 159 
0.03873719 0.01372478 0.353 169 159 157 
0.04322464 0.01372478 0.353 163 151 149 
0.04771209 0.01372478 0.353 167 155 153 
0.05219955 0.01372478 0.353 173 163 161 
0.056687 0.01372478 0.353 178 162 159 
0.06134775 0.01376366 0.354 184 163 162 
0.06621993 0.01384142 0.356 203 188 187 
0.07094424 0.0138803 0.357 172 156 151 
0.07548255 0.0138803 0.357 141 115 104 
0.07979669 0.01384142 0.356 131 103 100 
0.08408543 0.01380254 0.355 150 125 118 
0.0885983 0.01380254 0.355 168 154 150 
0.09311118 0.01380254 0.355 187 175 173 
0.09789905 0.01384142 0.356 211 203 189 
0.2352527 0.03110431 0.8 210 205 187 
0.2321733 0.02853821 0.734 8 9 3 
0.2372268 0.02803276 0.721 6 7 3 
0.242975 0.02764396 0.711 103 83 75 
0.2502412 0.02744956 0.706 58 37 36 
0.2570132 0.02721627 0.7 52 37 27 
0.2636326 0.02698299 0.694 38 31 23 
0.2649958 0.02624426 0.675 20 18 10 
0.2703342 0.02593322 0.6670001 11 15 8 
0.2767233 0.02573882 0.6620001 26 26 20 
0.2829852 0.02554442 0.657 78 69 60 
0.28912 0.02535001 0.652 92 85 75 
0.2951277 0.02515561 0.647 99 92 82 
0.3010083 0.02496121 0.642 94 87 77 
0.3082065 0.02488345 0.64 97 90 80 
0.3158481 0.02484457 0.6390001 107 100 94 
-0.01600415 0.01408336 0.348 69 53 50 
-0.01154698 0.01404289 0.347 117 96 93 
-0.007135805 0.01404289 0.347 158 132 130 
-0.002716775 0.01400242 0.346 184 161 160 
0.00168169 0.01400242 0.346 190 168 170 
0.006097728 0.01404289 0.347 195 174 173 
0.01053919 0.01408336 0.348 194 175 173 
0.01504908 0.0141643 0.35 185 171 167 
0.0195541 0.01420477 0.351 182 171 166 
0.02401613 0.01420477 0.351 182 172 170 
0.02847815 0.01420477 0.351 173 161 159 
0.03312787 0.01428571 0.353 176 164 162 
0.03761533 0.01428571 0.353 169 159 157 
0.04210278 0.01428571 0.353 164 154 154 
0.04659023 0.01428571 0.353 164 152 150 
0.05107768 0.01428571 0.353 172 162 160 
0.05556513 0.01428571 0.353 173 161 159 
0.0602227 0.01432618 0.354 179 158 155 
0.0649057 0.01436665 0.355 200 185 184 
0.06980968 0.01444759 0.357 190 176 172 
0.07434797 0.01444759 0.357 112 87 78 
0.07866529 0.01440712 0.356 141 115 111 
0.08319089 0.01440712 0.356 145 118 112 
0.08747008 0.01436665 0.355 166 145 144 
0.09224206 0.01440712 0.356 184 169 170 
0.09703948 0.01444759 0.357 189 182 174 
0.2321284 0.03229461 0.798 211 209 188 
0.2413621 0.0321732 0.795 21 21 17 
0.2362388 0.02934034 0.725 4 8 3 
0.241054 0.02881424 0.712 89 71 60 
0.2487001 0.02865236 0.708 70 49 46 
0.2551525 0.02836907 0.701 39 23 18 
0.2625571 0.02820719 0.697 48 39 30 
0.2647976 0.02751921 0.68 23 21 11 
0.2686166 0.02703358 0.668 11 12 6 
0.2754491 0.0268717 0.664 18 19 15 
0.2813248 0.02662889 0.6580001 73 64 55 
0.287048 0.02638607 0.652 90 81 72 
0.2930715 0.02618372 0.647 97 90 80 
0.2998994 0.02606232 0.6440001 95 88 78 
0.3061725 0.02590044 0.64 93 89 78 
0.3138173 0.02585997 0.6390001 100 93 87 
0.3229481 0.02594091 0.641 119 115 108 
-0.01268623 0.01463635 0.348 109 88 87 
-0.0082386 0.01459429 0.347 149 123 123 
-0.003816392 0.01455223 0.346 178 152 152 
0.0005820738 0.01455223 0.346 190 168 170 
0.004980539 0.01455223 0.346 193 172 171 
0.009433218 0.01463635 0.348 197 178 176 
0.01393675 0.01472047 0.35 190 176 172 
0.01843859 0.01476252 0.351 185 174 169 
0.02290062 0.01476252 0.351 182 172 170 
0.02736265 0.01476252 0.351 179 169 167 
0.03191534 0.01480458 0.352 178 163 162 
0.03649346 0.01484664 0.353 169 159 157 
0.04098092 0.01484664 0.353 166 154 154 
0.04546836 0.01484664 0.353 167 155 153 
0.04995582 0.01484664 0.353 172 162 160 
0.05444327 0.01484664 0.353 172 162 160 
0.05909766 0.0148887 0.354 173 152 149 
0.06377748 0.01493076 0.355 193 174 172 
0.06848272 0.01497282 0.356 197 182 181 
0.0732134 0.01501488 0.357 135 113 105 
0.0777517 0.01501488 0.357 152 130 122 
0.08205949 0.01497282 0.356 143 118 111 
0.08634187 0.01493076 0.355 159 138 137 
0.09111067 0.01497282 0.356 179 164 163 
0.0959049 0.01501488 0.357 194 186 183 
0.2295923 0.03356266 0.798 207 207 187 
0.2403376 0.03364678 0.8 17 15 31 
0.2341865 0.03082886 0.733 4 8 1 
0.2381894 0.03015593 0.717 42 35 25 
0.2452347 0.02990357 0.711 96 75 70 
0.2517698 0.02960917 0.7040001 48 29 25 
0.2592379 0.02944093 0.7 59 44 34 
0.264689 0.02906241 0.691 36 29 19 
0.2659537 0.0282633 0.6720001 16 17 8 
0.272454 0.028053 0.6670001 16 17 11 
0.278406 0.02780065 0.661 46 44 36 
0.2842054 0.0275483 0.655 84 75 66 
0.290299 0.02733801 0.65 95 88 78 
0.2962653 0.02712772 0.645 97 90 80 
0.3025766 0.02695948 0.641 96 89 81 
0.3102405 0.02691742 0.64 92 88 79 
0.3193713 0.02700154 0.642 102 95 89 
-0.01489818 0.01518934 0.348 79 60 56 
-0.01044419 0.01514569 0.347 127 104 103 
-0.006015624 0.01510204 0.346 164 138 138 
-0.001617159 0.01510204 0.346 187 165 167 
0.002781306 0.01510204 0.346 189 167 169 
0.007200522 0.01514569 0.347 195 174 173 
0.01167863 0.01523298 0.349 192 175 175 
0.0161614 0.01527663 0.35 189 174 173 
0.02066961 0.01532028 0.351 182 170 168 
0.02520324 0.01536393 0.352 181 173 172 
0.02967798 0.01536393 0.352 176 161 160 
0.03424974 0.01540757 0.353 176 166 164 
0.03873719 0.01540757 0.353 168 158 158 
0.04322464 0.01540757 0.353 163 148 147 
0.04771209 0.01540757 0.353 166 156 154 
0.05219955 0.01540757 0.353 171 161 159 
0.056687 0.01540757 0.353 176 162 158 
0.06134775 0.01545122 0.354 179 156 153 
0.06603392 0.01549487 0.355 201 186 185 
0.07094424 0.01558216 0.357 189 170 164 
0.07548255 0.01558216 0.357 155 134 121 
0.07979669 0.01553851 0.356 141 115 111 
0.08408543 0.01549487 0.355 150 127 122 
0.0885983 0.01549487 0.355 170 153 153 
0.09363575 0.01558216 0.357 192 177 178 
0.09844904 0.01562581 0.358 228 225 220 
0.2386297 0.03430695 0.786 18 19 15 
0.235548 0.03186268 0.73 4 8 3 
0.239462 0.03116433 0.714 56 41 29 
0.2471462 0.03098974 0.71 90 71 67 
0.2536463 0.0306842 0.703 49 26 21 
0.261089 0.03050961 0.6990001 54 41 30 
0.2645677 0.02989855 0.6850001 33 26 18 
0.2672915 0.02924383 0.67 16 18 9 
0.2741621 0.02906924 0.666 15 16 10 
0.279658 0.02876371 0.659 67 60 52 
0.2854129 0.02850183 0.6530001 87 79 67 
0.2914651 0.02828359 0.648 97 90 80 
0.2978527 0.028109 0.6440001 97 90 80 
0.3041386 0.02793441 0.64 94 90 81 
0.3122745 0.02793441 0.64 85 81 74 
0.3224129 0.028109 0.6440001 96 87 82 
-0.0137922 0.01574232 0.348 92 71 70 
-0.009341394 0.01569708 0.347 135 112 111 
-0.004916008 0.01565185 0.346 170 143 146 
-0.0005175425 0.01565185 0.346 187 165 167 
0.003880923 0.01565185 0.346 191 170 169 
0.008327247 0.01574232 0.348 196 177 175 
0.01282442 0.01583279 0.35 192 177 176 
0.01732309 0.01587803 0.351 189 177 175 
0.02178511 0.01587803 0.351 181 171 171 
0.02632192 0.01592327 0.352 180 170 170 
0.03088415 0.0159685 0.353 175 163 161 
0.0353716 0.0159685 0.353 175 165 163 
0.03985905 0.0159685 0.353 165 155 155 
0.0443465 0.0159685 0.353 163 148 147 
0.04883396 0.0159685 0.353 168 158 156 
0.05332141 0.0159685 0.353 171 161 159 
0.05780886 0.0159685 0.353 174 158 153 
0.06247278 0.01601374 0.354 185 162 161 
0.06716214 0.01605898 0.355 200 185 184 
0.07207882 0.01614945 0.357 169 144 137 
0.07661712 0.01614945 0.357 160 140 132 
0.08092809 0.01610421 0.356 148 125 120 
0.08521365 0.01605898 0.355 159 136 135 
0.08997927 0.01610421 0.356 173 158 157 
0.09503578 0.01619469 0.358 193 183 183 
0.2349586 0.03614401 0.799 186 179 160 
0.233707 0.03410836 0.754 18 18 12 
0.2358707 0.03306792 0.731 4 8 3 
0.239462 0.0322989 0.714 58 40 31 
0.2471462 0.03211796 0.71 98 82 79 
0.2536463 0.0318013 0.703 54 31 26 
0.261089 0.03162035 0.6990001 54 41 30 
0.2645677 0.03098704 0.6850001 35 28 18 
0.2676904 0.03035373 0.671 17 18 12 
0.2741621 0.03012755 0.666 16 17 11 
0.279658 0.02981089 0.659 67 60 52 
0.2849758 0.02949423 0.652 86 78 66 
0.2914651 0.02931329 0.648 96 89 79 
0.2978527 0.02913234 0.6440001 97 90 80 
0.3041386 0.0289514 0.64 94 90 81 
0.3127624 0.02899663 0.641 84 80 71 
0.3234142 0.02922281 0.646 90 79 74 
-0.0137922 0.01629531 0.348 89 68 67 
-0.009341394 0.01624848 0.347 134 111 110 
-0.004916008 0.01620166 0.346 169 142 145 
-0.0005175425 0.01620166 0.346 187 165 167 
0.003880923 0.01620166 0.346 191 170 169 
0.008327247 0.01629531 0.348 195 176 174 
0.01282442 0.01638896 0.35 191 176 175 
0.01732309 0.01643579 0.351 189 177 177 
0.02184718 0.01648261 0.352 183 173 173 
0.02632192 0.01648261 0.352 180 170 170 
0.03088415 0.01652944 0.353 175 163 161 
0.0353716 0.01652944 0.353 176 166 164 
0.03985905 0.01652944 0.353 164 152 150 
0.0443465 0.01652944 0.353 162 147 146 
0.04883396 0.01652944 0.353 168 158 156 
0.05332141 0.01652944 0.353 169 159 157 
0.05780886 0.01652944 0.353 176 160 155 
0.06247278 0.01657626 0.354 179 153 151 
0.06716214 0.01662309 0.355 199 182 182 
0.07207882 0.01671674 0.357 169 144 137 
0.07661712 0.01671674 0.357 161 141 133 
0.08092809 0.01666991 0.356 151 130 125 
0.08545368 0.01666991 0.356 157 136 135 
0.08997927 0.01666991 0.356 175 160 161 
0.09503578 0.01676356 0.358 193 183 183 
0.231553 0.03647714 0.779 156 152 143 
0.2337549 0.03460412 0.739 8 9 3 
0.2372268 0.03376126 0.721 9 10 6 
0.242975 0.033293 0.711 112 93 87 
0.2502412 0.03305887 0.706 83 69 63 
0.2573804 0.03282474 0.701 54 36 27 
0.2636326 0.03249696 0.694 48 38 26 
0.2653884 0.0316541 0.6760001 26 24 14 
0.2715501 0.03137315 0.67 13 14 10 
0.2771413 0.03104537 0.663 34 34 28 
0.2821238 0.03067077 0.655 80 71 62 
0.2886766 0.03048346 0.651 93 85 73 
0.2942155 0.03020251 0.645 101 92 83 
0.3005395 0.03001521 0.641 95 88 78 
0.3082065 0.02996838 0.64 90 83 75 
0.3183195 0.03015569 0.6440001 79 72 66 
-0.01600415 0.01684829 0.348 52 43 46 
-0.01154698 0.01679988 0.347 112 91 90 
-0.007115241 0.01675146 0.346 150 124 124 
-0.002716775 0.01675146 0.346 179 152 155 
0.00168169 0.01675146 0.346 188 167 166 
0.006097728 0.01679988 0.347 191 170 169 
0.01056948 0.01689671 0.349 192 175 175 
0.01504908 0.01694512 0.35 192 180 180 
0.0195541 0.01699354 0.351 185 173 173 
0.02408455 0.01704195 0.352 183 173 173 
0.02864042 0.01709037 0.353 177 165 163 
0.03312787 0.01709037 0.353 178 166 164 
0.03761533 0.01709037 0.353 171 161 159 
0.04210278 0.01709037 0.353 162 147 146 
0.04659023 0.01709037 0.353 167 157 155 
0.05093298 0.01704195 0.352 171 161 159 
0.05556513 0.01709037 0.353 173 161 159 
0.0602227 0.01713878 0.354 173 154 150 
0.0649057 0.0171872 0.355 192 169 168 
0.06961412 0.01723561 0.356 195 178 178 
0.07434797 0.01728403 0.357 177 154 149 
0.07888627 0.01728403 0.357 147 121 119 
0.08319089 0.01723561 0.356 157 141 138 
0.08771648 0.01723561 0.356 168 148 149 
0.09276027 0.01733244 0.358 190 178 178 
0.09758312 0.01738086 0.359 193 194 185 
0.2321572 0.03626256 0.749 18 20 11 
0.2365161 0.03548793 0.733 3 7 2 
0.239462 0.03456805 0.714 57 39 30 
0.2471462 0.03437439 0.71 106 92 86 
0.2536463 0.03403549 0.703 56 33 28 
0.261089 0.03384183 0.6990001 57 49 37 
0.2645677 0.03316403 0.6850001 41 32 23 
0.2680894 0.03253464 0.6720001 18 18 12 
0.2745738 0.03229256 0.6670001 18 19 13 
0.2792336 0.03185683 0.6580001 67 58 51 
0.2849758 0.03156634 0.652 87 79 67 
0.2919149 0.0314211 0.649 97 88 79 
0.2978527 0.03117903 0.6440001 102 93 84 
0.3046138 0.03103378 0.641 96 89 79 
0.3132503 0.0310822 0.642 86 79 71 
0.3244154 0.03137268 0.648 84 75 70 
-0.0137922 0.01740128 0.348 86 67 65 
-0.009341394 0.01735128 0.347 133 110 109 
-0.004916008 0.01730127 0.346 166 139 142 
-0.0005175425 0.01730127 0.346 183 161 163 
0.003880923 0.01730127 0.346 190 169 168 
0.008327247 0.01740128 0.348 193 174 172 
0.01278778 0.01745128 0.349 192 180 178 
0.01732309 0.01755129 0.351 188 178 178 
0.02184718 0.0176013 0.352 185 173 173 
0.0263967 0.0176513 0.353 180 170 170 
0.03088415 0.0176513 0.353 178 163 162 
0.0354718 0.0177013 0.354 174 164 162 
0.03985905 0.0176513 0.353 164 152 150 
0.0443465 0.0176513 0.353 159 147 145 
0.04869562 0.0176013 0.352 169 159 157 
0.05317035 0.0176013 0.352 171 161 159 
0.05780886 0.0176513 0.353 175 161 157 
0.06247278 0.0177013 0.354 176 155 152 
0.06716214 0.01775131 0.355 196 175 174 
0.07207882 0.01785131 0.357 195 176 174 
0.07661712 0.01785131 0.357 164 141 138 
0.08092809 0.01780131 0.356 153 134 130 
0.08545368 0.01780131 0.356 161 145 142 
0.09023202 0.01785131 0.357 178 163 164 
0.09530126 0.01795132 0.359 194 184 184 
0.2223138 0.03780278 0.756 190 188 165 
0.2329719 0.03720274 0.744 12 13 4 
0.2368905 0.03635268 0.7270001 6 10 5 
0.241054 0.03560262 0.712 104 84 76 
0.2487001 0.0354026 0.708 101 92 85 
0.2551525 0.03505258 0.701 50 28 20 
0.2625571 0.03485256 0.697 59 53 40 
0.2651871 0.03405251 0.6810001 35 31 20 
0.2698229 0.03355247 0.671 19 21 12 
0.2758639 0.03325245 0.665 28 28 22 
0.2804697 0.03280241 0.656 74 65 58 
0.287048 0.0326024 0.652 90 82 70 
0.2930715 0.03235238 0.647 103 93 81 
0.2994337 0.03215237 0.643 101 93 81 
0.3071293 0.03210236 0.642 93 86 76 
0.316764 0.03225238 0.645 83 76 66 
0.3274825 0.03250239 0.65 88 79 72 
-0.01154698 0.01790267 0.347 112 89 88 
-0.007115241 0.01785108 0.346 147 121 121 
-0.002708923 0.01779949 0.345 177 150 153 
0.00168169 0.01785108 0.346 186 164 166 
0.006097728 0.01790267 0.347 190 169 168 
0.01056948 0.01800586 0.349 192 178 174 
0.01504908 0.01805745 0.35 192 182 180 
0.0195541 0.01810904 0.351 188 176 176 
0.02408455 0.01816064 0.352 183 173 173 
0.02864042 0.01821223 0.353 180 165 164 
0.03322172 0.01826382 0.354 177 165 163 
0.03761533 0.01821223 0.353 172 162 160 
0.04210278 0.01821223 0.353 160 145 144 
0.04659023 0.01821223 0.353 165 156 151 
0.05093298 0.01816064 0.352 169 159 157 
0.05540773 0.01816064 0.352 171 162 157 
0.06005258 0.01821223 0.353 173 157 152 
0.06472287 0.01826382 0.354 182 161 158 
0.06961412 0.01836701 0.356 197 178 176 
0.07434797 0.0184186 0.357 185 169 164 
0.07888627 0.0184186 0.357 151 125 123 
0.08319089 0.01836701 0.356 164 148 145 
0.08771648 0.01836701 0.356 169 152 152 
0.09276027 0.01847019 0.358 190 178 178 
0.09758312 0.01852179 0.359 180 176 165 
0.2226357 0.03864294 0.749 118 118 114 
0.2332851 0.03843658 0.7450001 12 13 4 
0.2372164 0.0375595 0.728 6 10 5 
0.241054 0.03673401 0.712 103 85 76 
0.2483488 0.03647605 0.707 99 88 83 
0.2551525 0.0361665 0.701 47 27 19 
0.2621804 0.03590853 0.696 65 59 46 
0.2651871 0.03513464 0.6810001 40 33 23 
0.270225 0.03467031 0.6720001 24 26 17 
0.2754491 0.03425756 0.664 34 31 26 
0.2804697 0.03384482 0.656 74 65 58 
0.287048 0.03363845 0.652 90 82 70 
0.2935245 0.03343208 0.648 103 93 81 
0.2994337 0.03317412 0.643 103 95 83 
0.3071293 0.03312252 0.642 93 86 76 
0.316764 0.0332773 0.645 83 76 66 
0.3274825 0.03353527 0.65 88 81 73 
-0.01154698 0.01845407 0.347 111 88 87 
-0.007115241 0.01840089 0.346 145 119 117 
-0.002708923 0.01834771 0.345 173 147 147 
0.00168169 0.01840089 0.346 183 161 163 
0.006097728 0.01845407 0.347 190 169 168 
0.01056948 0.01856043 0.349 194 182 180 
0.01504908 0.01861362 0.35 193 183 181 
0.0195541 0.0186668 0.351 187 177 177 
0.02408455 0.01871998 0.352 182 172 172 
0.02864042 0.01877316 0.353 178 166 164 
0.03322172 0.01882634 0.354 177 165 163 
0.03761533 0.01877316 0.353 168 158 158 
0.04210278 0.01877316 0.353 158 144 140 
0.04645825 0.01871998 0.352 165 156 151 
0.05093298 0.01871998 0.352 169 159 157 
0.05540773 0.01871998 0.352 171 161 159 
0.06005258 0.01877316 0.353 173 157 154 
0.06472287 0.01882634 0.354 183 164 160 
0.06961412 0.01893271 0.356 197 178 176 
0.07434797 0.01898589 0.357 190 174 171 
0.07888627 0.01898589 0.357 154 131 128 
0.08319089 0.01893271 0.356 165 149 146 
0.08771648 0.01893271 0.356 169 152 152 
0.09276027 0.01903907 0.358 189 179 179 
0.09758312 0.01909225 0.359 169 161 149 
0.2214467 0.03962041 0.7450001 94 94 90 
0.2312274 0.03967359 0.7460001 19 21 12 
0.2371614 0.03908859 0.735 4 8 3 
0.239462 0.03797178 0.714 55 42 31 
0.24645 0.03765268 0.708 105 91 83 
0.2532855 0.03733359 0.702 51 28 23 
0.2607155 0.03712087 0.698 78 72 57 
0.2645677 0.03642951 0.6850001 49 42 34 
0.2684883 0.03579132 0.673 29 31 22 
0.2741621 0.03541905 0.666 30 26 19 
0.2792336 0.0349936 0.6580001 67 58 51 
0.2854129 0.03472769 0.6530001 89 79 67 
0.2923647 0.03456814 0.65 97 89 77 
0.2978527 0.03424905 0.6440001 104 96 84 
0.3055642 0.03419587 0.643 98 89 80 
0.3147141 0.03430223 0.645 86 79 69 
0.3239148 0.0344086 0.647 89 82 72 
-0.01264978 0.01900547 0.347 94 71 70 
-0.008214857 0.0189507 0.346 138 115 112 
-0.003805362 0.01889593 0.345 166 140 140 
0.0005820738 0.0189507 0.346 181 159 161 
0.004994933 0.01900547 0.347 188 167 166 
0.009433218 0.01906024 0.348 193 179 175 
0.01393675 0.01916978 0.35 196 186 184 
0.01843859 0.01922455 0.351 188 178 178 
0.02296587 0.01927932 0.352 183 173 173 
0.02751856 0.01933409 0.353 178 168 166 
0.03209668 0.01938886 0.354 180 168 166 
0.03659684 0.01938886 0.354 167 157 157 
0.04098092 0.01933409 0.353 165 155 153 
0.04546836 0.01933409 0.353 164 153 148 
0.0498143 0.01927932 0.352 172 162 160 
0.05428904 0.01927932 0.352 169 164 162 
0.05893072 0.01933409 0.353 172 156 153 
0.06359783 0.01938886 0.354 181 162 158 
0.06829036 0.01944363 0.355 195 176 174 
0.07300831 0.0194984 0.356 199 185 181 
0.0777517 0.01955318 0.357 164 141 140 
0.08205949 0.0194984 0.356 164 145 143 
0.08658508 0.0194984 0.356 174 157 157 
0.09162253 0.01960795 0.358 184 172 172 
0.09644219 0.01966272 0.359 190 181 176 
0.2202577 0.04058516 0.7410001 67 67 67 
0.2315373 0.04091379 0.747 20 22 13 
0.2374841 0.04031131 0.7360001 4 8 3 
0.239462 0.03910635 0.714 57 43 35 
0.24645 0.03877772 0.708 105 91 83 
0.2532855 0.0384491 0.702 48 27 22 
0.2607155 0.03823002 0.698 82 76 61 
0.2641815 0.03746323 0.684 51 44 34 
0.2684883 0.03686075 0.673 31 36 26 
0.2741621 0.03647735 0.666 35 31 24 
0.2792336 0.03603919 0.6580001 68 59 52 
0.28585 0.0358201 0.654 89 79 67 
0.2923647 0.03560102 0.65 97 89 77 
0.2978527 0.0352724 0.6440001 105 96 87 
0.3060394 0.0352724 0.6440001 102 93 84 
0.3147141 0.03532717 0.645 86 79 69 
0.3234142 0.03538194 0.646 89 82 72 
-0.01154698 0.01955687 0.347 106 83 82 
-0.007115241 0.01950051 0.346 142 119 116 
-0.002708923 0.01944415 0.345 170 144 144 
0.00168169 0.01950051 0.346 181 157 159 
0.006115301 0.01961323 0.348 190 167 166 
0.01056948 0.01966958 0.349 194 182 180 
0.01504908 0.01972594 0.35 194 184 184 
0.0195541 0.0197823 0.351 188 178 178 
0.02415297 0.01989502 0.353 181 171 171 
0.02872156 0.01995138 0.354 180 168 166 
0.03322172 0.01995138 0.354 180 168 166 
0.03772188 0.01995138 0.354 167 157 155 
0.04210278 0.01989502 0.353 158 147 142 
0.04645825 0.01983866 0.352 166 157 152 
0.05093298 0.01983866 0.352 171 161 161 
0.05540773 0.01983866 0.352 172 164 161 
0.06005258 0.01989502 0.353 172 156 153 
0.06472287 0.01995138 0.354 181 162 158 
0.06941858 0.02000774 0.355 196 177 175 
0.07413971 0.0200641 0.356 196 182 178 
0.07866529 0.0200641 0.356 168 145 144 
0.08319089 0.0200641 0.356 167 148 146 
0.08771648 0.0200641 0.356 176 159 159 
0.09276027 0.02017682 0.358 192 181 185 
0.2129298 0.0412554 0.7320001 171 170 142 
0.2255749 0.04187536 0.743 20 27 21 
0.2359691 0.04204444 0.7460001 8 9 3 
0.2378849 0.04074817 0.723 8 12 7 
0.2426333 0.04001549 0.71 98 82 75 
0.2495324 0.03967733 0.7040001 79 63 58 
0.2570132 0.03945189 0.7 50 35 23 
0.262493 0.03894465 0.691 68 59 50 
0.265781 0.03815561 0.677 40 38 28 
0.2715501 0.03776109 0.67 40 42 33 
0.2763053 0.03725385 0.661 59 52 44 
0.2829852 0.03702841 0.657 80 72 60 
0.2895635 0.03680298 0.6530001 93 83 71 
0.2951277 0.03646482 0.647 106 95 86 
0.3019461 0.03629574 0.6440001 111 102 93 
0.3101328 0.03629574 0.6440001 94 85 76 
0.3183195 0.03629574 0.6440001 86 77 68 
-0.01375257 0.02010826 0.347 70 54 51 
-0.009341394 0.02010826 0.347 126 103 102 
-0.004916008 0.02005031 0.346 159 136 135 
-0.0005175425 0.02005031 0.346 177 153 155 
0.003892139 0.02010826 0.347 184 158 158 
0.008327247 0.02016621 0.348 193 179 175 
0.01278778 0.02022416 0.349 197 187 185 
0.01727373 0.02028211 0.35 194 184 184 
0.02184718 0.02039801 0.352 183 173 171 
0.0263967 0.02045595 0.353 180 170 168 
0.03097164 0.0205139 0.354 183 171 169 
0.0354718 0.0205139 0.354 174 162 160 
0.03985905 0.02045595 0.353 162 152 150 
0.0443465 0.02045595 0.353 160 146 142 
0.04869562 0.02039801 0.352 168 158 158 
0.05317035 0.02039801 0.352 170 165 163 
0.05764509 0.02039801 0.352 170 159 154 
0.06229631 0.02045595 0.353 179 160 156 
0.06697295 0.0205139 0.354 184 163 162 
0.07187692 0.0206298 0.356 200 184 181 
0.07640251 0.0206298 0.356 179 157 159 
0.08092809 0.0206298 0.356 168 144 146 
0.08545368 0.0206298 0.356 173 156 156 
0.09023202 0.02068775 0.357 184 172 172 
0.09503578 0.0207457 0.358 195 185 185 
0.218177 0.04253448 0.734 40 40 42 
0.2312274 0.04322987 0.7460001 22 24 15 
0.2378067 0.04270833 0.737 4 8 3 
0.239462 0.0413755 0.714 69 58 49 
0.2457538 0.04091191 0.706 106 96 84 
0.2529247 0.04062217 0.701 47 26 23 
0.260342 0.04039037 0.697 89 83 70 
0.2637952 0.03957909 0.683 55 46 37 
0.2684883 0.0389996 0.673 40 42 33 
0.2733388 0.03847806 0.664 47 48 39 
0.279658 0.03818832 0.659 74 65 56 
0.2871612 0.03807241 0.657 87 79 67 
0.2932643 0.03778267 0.652 99 89 77 
0.2983152 0.03737703 0.645 114 103 94 
0.3065147 0.03737703 0.645 111 102 93 
0.3142262 0.03731908 0.6440001 84 75 66 
0.3219122 0.03726113 0.643 67 56 47 
-0.01154698 0.02065966 0.347 103 80 77 
-0.007115241 0.02060012 0.346 141 118 115 
-0.002716775 0.02060012 0.346 169 143 143 
0.00168169 0.02060012 0.346 181 158 157 
0.006115301 0.0207192 0.348 190 171 169 
0.01056948 0.02077873 0.349 196 181 180 
0.01504908 0.02083827 0.35 199 189 189 
0.0195541 0.02089781 0.351 189 181 180 
0.02415297 0.02101689 0.353 181 171 169 
0.02872156 0.02107642 0.354 180 170 168 
0.03322172 0.02107642 0.354 183 171 169 
0.03772188 0.02107642 0.354 164 154 152 
0.04210278 0.02101689 0.353 157 143 139 
0.04645825 0.02095735 0.352 166 156 154 
0.05093298 0.02095735 0.352 171 163 162 
0.05540773 0.02095735 0.352 172 167 165 
0.06005258 0.02101689 0.353 173 154 152 
0.06454004 0.02101689 0.353 183 164 162 
0.06941858 0.02113596 0.355 193 174 172 
0.07413971 0.0211955 0.356 197 181 178 
0.07866529 0.0211955 0.356 170 147 146 
0.08319089 0.0211955 0.356 169 148 147 
0.08771648 0.0211955 0.356 182 167 168 
0.09276027 0.02131458 0.358 194 184 184 
0.2103119 0.04304592 0.723 162 170 139 
0.2237533 0.04387945 0.737 20 29 22 
0.2366017 0.04453437 0.748 8 9 3 
0.2378849 0.04304592 0.723 8 12 7 
0.2426333 0.04227193 0.71 80 64 59 
0.2491779 0.04185516 0.703 105 91 85 
0.256646 0.04161701 0.6990001 53 38 28 
0.2621131 0.04108117 0.6900001 69 60 51 
0.265781 0.04030718 0.677 41 39 31 
0.2711448 0.03983087 0.669 51 52 43 
0.2758873 0.03929503 0.66 70 63 55 
0.2838467 0.03923549 0.659 80 72 60 
0.2908938 0.03905688 0.656 90 82 70 
0.2955839 0.03858057 0.648 109 96 85 
0.3024149 0.03840196 0.645 123 114 107 
0.3101328 0.03834242 0.6440001 104 97 91 
0.317331 0.03822334 0.642 75 61 55 
-0.01375257 0.02121106 0.347 64 50 46 
-0.009341394 0.02121106 0.347 122 99 96 
-0.004916008 0.02114993 0.346 155 132 131 
-0.0005175425 0.02114993 0.346 178 152 152 
0.003892139 0.02121106 0.347 186 163 162 
0.008327247 0.02127218 0.348 193 177 174 
0.01278778 0.02133331 0.349 196 186 184 
0.01727373 0.02139444 0.35 194 184 184 
0.02178511 0.02145556 0.351 184 176 173 
0.0263967 0.02157782 0.353 179 169 167 
0.03097164 0.02163894 0.354 182 170 168 
0.0354718 0.02163894 0.354 174 162 160 
0.03997197 0.02163894 0.354 161 151 149 
0.0443465 0.02157782 0.353 163 149 145 
0.04869562 0.02151669 0.352 169 159 157 
0.05332141 0.02157782 0.353 170 162 161 
0.05764509 0.02151669 0.352 171 160 155 
0.06229631 0.02157782 0.353 178 159 157 
0.06697295 0.02163894 0.354 187 168 166 
0.07167502 0.02170007 0.355 198 182 179 
0.07640251 0.0217612 0.356 186 170 167 
0.08092809 0.0217612 0.356 169 147 149 
0.08545368 0.0217612 0.356 177 162 161 
0.09023202 0.02182233 0.357 189 177 177 
0.09530126 0.02194458 0.359 199 189 187 
0.2126096 0.0441948 0.723 136 146 123 
0.2267091 0.04517283 0.739 18 22 15 
0.2377009 0.04547846 0.744 4 8 3 
0.2381894 0.04382803 0.717 33 28 24 
0.2441999 0.04327789 0.708 85 69 64 
0.2506969 0.04285 0.701 108 89 85 
0.2584972 0.04266662 0.698 86 73 60 
0.2627738 0.0419331 0.686 62 53 44 
0.2667452 0.04119957 0.674 41 42 33 
0.2720455 0.04071056 0.666 57 55 47 
0.2779848 0.04034379 0.66 74 67 59 
0.286375 0.04034379 0.66 82 74 62 
0.292532 0.04003816 0.655 94 86 74 
0.297184 0.03954915 0.647 115 102 91 
0.3044648 0.03942689 0.645 132 123 116 
0.3116947 0.03930464 0.643 103 94 87 
0.3188738 0.03918238 0.641 63 47 44 
-0.01264978 0.02176245 0.347 82 61 58 
-0.0082386 0.02176245 0.347 131 105 103 
-0.003816392 0.02169974 0.346 161 135 135 
0.0005820738 0.02169974 0.346 177 154 151 
0.005009328 0.02182517 0.348 190 171 169 
0.009433218 0.02182517 0.348 195 178 178 
0.01393675 0.0219506 0.35 195 185 183 
0.01838606 0.0219506 0.35 194 186 183 
0.02296587 0.02207603 0.352 182 172 170 
0.02751856 0.02213875 0.353 176 166 164 
0.03209668 0.02220146 0.354 183 171 169 
0.03659684 0.02220146 0.354 170 158 156 
0.04098092 0.02213875 0.353 161 150 145 
0.04546836 0.02213875 0.353 163 152 147 
0.04995582 0.02213875 0.353 171 163 160 
0.05444327 0.02213875 0.353 172 164 163 
0.05876378 0.02207603 0.352 170 156 152 
0.06341817 0.02213875 0.353 180 161 159 
0.06809799 0.02220146 0.354 189 170 168 
0.07280324 0.02226418 0.355 197 180 180 
0.07731611 0.02226418 0.355 180 164 161 
0.08205949 0.0223269 0.356 172 152 153 
0.08658508 0.0223269 0.356 183 168 169 
0.09162253 0.02245233 0.358 194 184 184 
0.09644219 0.02251505 0.359 187 180 170 
0.2123155 0.04528096 0.7220001 133 142 124 
0.2267091 0.04634713 0.739 15 22 14 
0.2380204 0.04672343 0.7450001 4 8 3 
0.2385216 0.04503009 0.7180001 28 23 19 
0.243855 0.04434021 0.707 81 65 60 
0.2506969 0.04396392 0.701 112 93 87 
0.2584972 0.04377577 0.698 88 75 62 
0.2623907 0.04296046 0.6850001 63 56 46 
0.2667452 0.04227059 0.674 46 44 36 
0.2720455 0.04176886 0.666 61 59 51 
0.2779848 0.04139256 0.66 77 70 62 
0.286375 0.04139256 0.66 82 74 62 
0.2929786 0.0411417 0.656 96 86 74 
0.297184 0.04057725 0.647 118 105 94 
0.3039927 0.04038911 0.6440001 136 127 120 
0.31121 0.04026367 0.642 121 114 108 
0.3178789 0.04007553 0.6390001 77 60 60 
-0.01154698 0.02231385 0.347 96 73 70 
-0.007135805 0.02231385 0.347 140 114 112 
-0.002716775 0.02224955 0.346 164 138 138 
0.00168655 0.02231385 0.347 181 158 157 
0.006115301 0.02237816 0.348 192 176 173 
0.01056948 0.02244246 0.349 196 181 180 
0.01504908 0.02250677 0.35 197 187 185 
0.0195541 0.02257107 0.351 192 184 181 
0.02408455 0.02263538 0.352 182 172 170 
0.02864042 0.02269968 0.353 179 169 167 
0.03322172 0.02276399 0.354 185 173 171 
0.03772188 0.02276399 0.354 168 156 154 
0.04210278 0.02269968 0.353 155 144 139 
0.04659023 0.02269968 0.353 165 155 153 
0.05107768 0.02269968 0.353 171 163 162 
0.05556513 0.02269968 0.353 173 165 164 
0.05988247 0.02263538 0.352 170 154 151 
0.06454004 0.02269968 0.353 179 160 158 
0.06922303 0.02276399 0.354 189 170 168 
0.07393146 0.02282829 0.355 195 178 178 
0.07844433 0.02282829 0.355 180 160 161 
0.08319089 0.0228926 0.356 174 157 159 
0.08771648 0.0228926 0.356 183 171 171 
0.09276027 0.02302121 0.358 195 185 185 
0.2040091 0.04610672 0.717 136 152 129 
0.2152046 0.04655686 0.724 8 13 22 
0.2312274 0.04797157 0.7460001 18 22 15 
0.2387747 0.04758573 0.74 4 8 3 
0.2397973 0.04597811 0.715 71 57 51 
0.2454057 0.04533506 0.705 89 73 66 
0.2525639 0.04501354 0.7 108 89 85 
0.2592214 0.0446277 0.694 92 82 68 
0.2630228 0.04379174 0.6810001 58 51 43 
0.2680894 0.04321299 0.6720001 54 52 44 
0.2729272 0.04263425 0.663 68 66 58 
0.2800823 0.04244133 0.66 78 71 63 
0.2889096 0.04250564 0.661 88 78 66 
0.2941639 0.0420555 0.654 101 88 77 
0.2983152 0.04147676 0.645 125 111 103 
0.3060394 0.04141245 0.6440001 141 134 126 
0.3127624 0.04121954 0.641 131 123 120 
