ply
format ascii 1.0
element vertex 1210
property float32 x
property float32 y
property float32 z
property uchar red
property uchar green
property uchar blue
end_header
-0.00327592 -0.000251153 0.297 50 69 89 
0.0005013237 -0.0002519986 0.298 54 72 97 
0.004289597 -0.0002519986 0.298 66 122 164 
0.008077871 -0.0002519986 0.298 65 172 210 
0.01190596 -0.0002528442 0.299 71 171 211 
0.01570695 -0.0002528442 0.299 73 171 219 
0.01950794 -0.0002528442 0.299 169 216 254 
0.02330892 -0.0002528442 0.299 93 176 229 
0.02720058 -0.0002536899 0.3 190 232 255 
0.03101427 -0.0002536899 0.3 79 143 203 
0.03482797 -0.0002536899 0.3 109 157 217 
0.03864167 -0.0002536899 0.3 79 126 191 
0.04245537 -0.0002536899 0.3 75 122 187 
0.04626907 -0.0002536899 0.3 66 111 177 
0.05008277 -0.0002536899 0.3 62 105 158 
0.05407612 -0.0002545355 0.301 68 99 138 
0.05790253 -0.0002545355 0.301 70 98 129 
0.06193402 -0.0002553811 0.302 69 93 121 
0.06577314 -0.0002553811 0.302 70 95 120 
0.06984277 -0.0002562267 0.303 74 94 120 
0.0736946 -0.0002562267 0.303 77 97 121 
0.07754644 -0.0002562267 0.303 81 101 125 
0.08193556 -0.000257918 0.305 137 164 177 
0.1522244 -0.0004524136 0.535 156 178 188 
0.2448439 -0.0006891908 0.8150001 68 72 84 
0.2595884 -0.0007010297 0.8290001 26 27 23 
0.2645875 -0.0006866539 0.812 8 11 10 
0.2644145 -0.0006604393 0.781 8 11 10 
0.2694251 -0.0006486004 0.767 9 12 11 
0.2755356 -0.000640144 0.757 10 13 14 
0.2806385 -0.0006299965 0.7450001 10 13 14 
0.2901092 -0.0006299965 0.7450001 8 11 12 
0.3064159 -0.0006443722 0.762 6 9 10 
0.307806 -0.0006274596 0.742 7 10 9 
0.3086877 -0.000610547 0.7220001 7 10 9 
0.3152244 -0.0006054731 0.716 8 11 10 
0.3220616 -0.000601245 0.711 9 12 13 
0.3306344 -0.0006003993 0.71 13 16 17 
0.3396602 -0.0006003993 0.71 14 17 18 
0.3496681 -0.0006020906 0.712 25 28 31 
0.359727 -0.0006037818 0.714 35 38 41 
-0.07269084 0.0002520154 0.339 153 152 154 
-0.05851193 0.000251272 0.338 155 153 164 
-0.05405476 0.0002505285 0.337 252 255 254 
-0.04977071 0.0002505285 0.337 195 203 222 
-0.03044235 0.0002193054 0.295 40 50 68 
-0.0267827 0.0002200488 0.296 38 50 66 
-0.02309762 0.0002207922 0.297 40 52 68 
-0.01932206 0.0002207922 0.297 40 55 72 
-0.0155465 0.0002207922 0.297 42 57 74 
-0.01177093 0.0002207922 0.297 41 58 74 
-0.007995372 0.0002207922 0.297 47 61 81 
-0.00421981 0.0002207922 0.297 48 64 83 
-0.0004457447 0.0002215356 0.298 52 70 93 
0.003342529 0.0002215356 0.298 53 78 114 
0.007130803 0.0002215356 0.298 70 174 211 
0.01091908 0.0002215356 0.298 76 180 219 
0.0147567 0.000222279 0.299 83 184 231 
0.01855769 0.000222279 0.299 203 241 255 
0.02235868 0.000222279 0.299 116 181 236 
0.02615966 0.000222279 0.299 122 179 227 
0.03006085 0.0002230224 0.3 77 149 203 
0.03387455 0.0002230224 0.3 143 185 245 
0.03768825 0.0002230224 0.3 77 129 193 
0.04150195 0.0002230224 0.3 74 124 190 
0.04531564 0.0002230224 0.3 70 115 181 
0.04912934 0.0002230224 0.3 65 109 166 
0.05311952 0.0002237659 0.301 67 101 141 
0.05694593 0.0002237659 0.301 71 99 132 
0.06077234 0.0002237659 0.301 68 94 123 
0.06481337 0.0002245093 0.302 69 93 121 
0.06887981 0.0002252527 0.303 74 94 120 
0.07273164 0.0002252527 0.303 78 98 124 
0.07658348 0.0002252527 0.303 79 99 123 
0.08070078 0.0002259961 0.304 166 181 196 
0.1522244 0.0003977233 0.535 149 171 181 
0.2448439 0.0006058777 0.8150001 65 69 81 
0.2595884 0.0006162854 0.8290001 20 21 17 
0.2652392 0.0006051342 0.814 8 11 10 
0.2657688 0.0005835754 0.785 8 11 10 
0.2697764 0.0005709374 0.768 9 12 11 
0.2755356 0.0005627599 0.757 10 13 14 
0.2802618 0.0005530957 0.744 9 12 13 
0.2897198 0.0005530957 0.744 8 11 12 
0.3056117 0.0005649902 0.7600001 6 9 10 
0.3061467 0.0005486352 0.738 6 9 8 
0.3082601 0.0005359973 0.721 5 11 9 
0.3152244 0.0005322802 0.716 8 11 10 
0.3225146 0.0005293066 0.712 9 12 13 
0.3311001 0.0005285632 0.711 13 16 17 
0.3396602 0.0005278198 0.71 14 17 18 
0.3506503 0.0005307934 0.714 22 25 28 
0.3602308 0.0005315368 0.715 34 34 38 
-0.06083978 0.0007907003 0.339 58 62 74 
-0.05636355 0.0007883678 0.338 252 255 254 
-0.05191274 0.0007860353 0.337 243 255 255 
-0.03231742 0.0006880725 0.295 37 45 64 
-0.02866412 0.0006904049 0.296 41 53 71 
-0.02490127 0.0006904049 0.296 37 49 67 
-0.02120984 0.0006927374 0.297 40 55 72 
-0.01743427 0.0006927374 0.297 39 54 71 
-0.01365871 0.0006927374 0.297 42 57 74 
-0.009883152 0.0006927374 0.297 43 57 77 
-0.006107591 0.0006927374 0.297 47 63 82 
-0.00233203 0.0006927374 0.297 53 69 90 
0.001448392 0.0006950698 0.298 53 71 94 
0.005236666 0.0006950698 0.298 63 117 159 
0.009024939 0.0006950698 0.298 67 178 217 
0.01281321 0.0006950698 0.298 81 184 226 
0.01660149 0.0006950698 0.298 87 183 229 
0.02045818 0.0006974023 0.299 198 235 254 
0.02425917 0.0006974023 0.299 83 178 229 
0.02806015 0.0006974023 0.299 102 155 214 
0.0319677 0.0006997347 0.3 76 141 198 
0.0357814 0.0006997347 0.3 74 126 192 
0.0395951 0.0006997347 0.3 79 129 193 
0.04340879 0.0006997347 0.3 76 121 187 
0.04722249 0.0006997347 0.3 65 113 175 
0.05103619 0.0006997347 0.3 61 103 149 
0.05503273 0.0007020672 0.301 72 101 138 
0.05885914 0.0007020672 0.301 69 95 124 
0.0628938 0.0007043996 0.302 68 94 121 
0.06673292 0.0007043996 0.302 72 92 118 
0.07080573 0.000706732 0.303 76 98 124 
0.07465756 0.000706732 0.303 77 97 121 
0.07850939 0.000706732 0.303 74 87 112 
0.1505241 0.00124786 0.535 153 174 182 
0.2407676 0.001889284 0.8100001 143 163 174 
0.2581936 0.00194293 0.8330001 37 37 31 
0.2645882 0.001912608 0.8200001 8 11 10 
0.2662924 0.001851965 0.794 6 9 8 
0.268728 0.001800651 0.772 7 10 9 
0.2742122 0.001772661 0.7600001 8 11 10 
0.2786444 0.001740007 0.7460001 10 13 14 
0.2858104 0.001726012 0.74 8 11 12 
0.3012016 0.001760999 0.7550001 7 10 11 
0.3050362 0.001728345 0.7410001 6 9 8 
0.3063931 0.001684028 0.7220001 5 11 9 
0.313386 0.001672366 0.717 6 12 12 
0.3211514 0.001665369 0.714 8 11 10 
0.329303 0.001660704 0.712 11 14 15 
0.3374037 0.001656039 0.71 13 16 17 
0.3478933 0.001663036 0.7130001 18 21 22 
0.3574578 0.001665369 0.714 29 29 31 
-0.05619679 0.001321542 0.337 252 255 254 
-0.05191274 0.001321542 0.337 244 255 255 
-0.03137989 0.00115684 0.295 38 48 66 
-0.02772341 0.001160761 0.296 38 50 68 
-0.02396056 0.001160761 0.296 40 52 70 
-0.02026595 0.001164683 0.297 43 55 73 
-0.01649038 0.001164683 0.297 41 56 73 
-0.01271482 0.001164683 0.297 42 57 74 
-0.008939262 0.001164683 0.297 46 60 80 
-0.005163701 0.001164683 0.297 47 63 82 
-0.001392813 0.001168604 0.298 52 68 89 
0.00239546 0.001168604 0.298 53 71 96 
0.006183734 0.001168604 0.298 58 118 163 
0.009972008 0.001168604 0.298 67 175 217 
0.01376028 0.001168604 0.298 126 192 240 
0.01754855 0.001168604 0.298 94 178 226 
0.02140843 0.001172525 0.299 179 216 246 
0.02520942 0.001172525 0.299 99 172 221 
0.0290104 0.001172525 0.299 82 152 205 
0.03292112 0.001176447 0.3 79 133 198 
0.03673482 0.001176447 0.3 75 127 193 
0.04054852 0.001176447 0.3 74 124 188 
0.04436222 0.001176447 0.3 68 115 182 
0.04817592 0.001176447 0.3 63 111 171 
0.05198962 0.001176447 0.3 66 101 145 
0.05598933 0.001180368 0.301 69 99 133 
0.05981574 0.001180368 0.301 69 95 124 
0.06385358 0.00118429 0.302 67 91 119 
0.06791685 0.001188211 0.303 70 92 116 
0.07176869 0.001188211 0.303 73 95 119 
0.07562052 0.001188211 0.303 79 101 125 
0.07973465 0.001192133 0.304 161 171 178 
0.1542124 0.002101918 0.536 144 164 177 
0.2495593 0.003223465 0.822 58 57 61 
0.262223 0.003250915 0.8290001 10 10 10 
0.26651 0.003176407 0.8100001 6 9 8 
0.2682636 0.003078369 0.785 8 11 10 
0.2718627 0.003007783 0.767 11 14 13 
0.2768399 0.002956803 0.754 10 13 14 
0.2814867 0.002905824 0.7410001 8 11 12 
0.2920842 0.002917588 0.744 7 10 9 
0.3035687 0.002937196 0.749 6 9 10 
0.303476 0.002847002 0.726 9 9 9 
0.3096901 0.002819551 0.719 5 11 9 
0.3174999 0.002807787 0.716 12 11 11 
0.3252335 0.002796022 0.7130001 12 12 12 
0.3328908 0.002784258 0.71 13 16 17 
0.3423982 0.002788179 0.711 14 17 18 
0.3534138 0.002803865 0.715 23 23 25 
-0.06218187 0.001812965 0.329 128 131 134 
-0.05405476 0.001857049 0.337 252 255 254 
-0.04977071 0.001857049 0.337 195 203 220 
-0.03044235 0.001625607 0.295 43 53 71 
-0.0267827 0.001631117 0.296 36 48 66 
-0.02301985 0.001631117 0.296 38 50 68 
-0.019257 0.001631117 0.296 40 55 72 
-0.0155465 0.001636628 0.297 41 56 73 
-0.01177093 0.001636628 0.297 43 58 75 
-0.007995372 0.001636628 0.297 46 62 81 
-0.00421981 0.001636628 0.297 48 64 85 
-0.0004457447 0.001642138 0.298 53 69 90 
0.003342529 0.001642138 0.298 56 74 99 
0.007130803 0.001642138 0.298 57 126 170 
0.01091908 0.001642138 0.298 73 179 222 
0.01470735 0.001642138 0.298 181 237 255 
0.01849562 0.001642138 0.298 105 192 241 
0.0222839 0.001642138 0.298 128 185 233 
0.02615966 0.001647649 0.299 196 232 255 
0.02996065 0.001647649 0.299 79 146 200 
0.03387455 0.001653159 0.3 81 133 199 
0.03768825 0.001653159 0.3 73 125 191 
0.04150195 0.001653159 0.3 74 121 188 
0.04531564 0.001653159 0.3 69 116 181 
0.04912934 0.001653159 0.3 61 105 162 
0.05294304 0.001653159 0.3 66 99 142 
0.05694593 0.00165867 0.301 72 97 131 
0.06077234 0.00165867 0.301 68 92 122 
0.06481337 0.00166418 0.302 67 92 117 
0.06887981 0.001669691 0.303 71 93 117 
0.07273164 0.001669691 0.303 77 97 121 
0.07658348 0.001669691 0.303 76 98 122 
0.1525089 0.002953645 0.536 200 210 215 
0.2451444 0.004496593 0.816 79 81 89 
0.2608409 0.004590272 0.8330001 16 15 15 
0.2662167 0.004502104 0.817 7 10 9 
0.2688158 0.004375362 0.794 8 11 10 
0.2708302 0.00424862 0.771 9 12 11 
0.2755356 0.004171472 0.757 10 13 12 
0.2798851 0.004094325 0.743 9 12 13 
0.2885515 0.004083304 0.7410001 8 11 10 
0.3007862 0.004121877 0.748 6 9 10 
0.3019984 0.004011667 0.728 6 9 8 
0.3074051 0.003962072 0.719 5 11 9 
0.3152244 0.00394554 0.716 11 11 13 
0.3234205 0.003934519 0.714 12 12 12 
0.3311001 0.003917987 0.711 15 15 17 
0.3396602 0.003912477 0.71 17 17 17 
0.3516325 0.00394554 0.716 22 22 22 
0.3607346 0.00394554 0.716 27 27 29 
-0.05619679 0.002392556 0.337 252 255 254 
-0.05191274 0.002392556 0.337 246 255 255 
-0.03231742 0.002094374 0.295 37 47 65 
-0.02866412 0.002101473 0.296 40 52 70 
-0.02490127 0.002101473 0.296 37 49 67 
-0.02113842 0.002101473 0.296 39 54 71 
-0.01737557 0.002101473 0.296 39 54 71 
-0.01365871 0.002108573 0.297 43 58 75 
-0.009883152 0.002108573 0.297 42 56 76 
-0.006107591 0.002108573 0.297 46 62 81 
-0.00233203 0.002108573 0.297 52 68 89 
0.001448392 0.002115672 0.298 52 70 93 
0.005236666 0.002115672 0.298 52 81 120 
0.009024939 0.002115672 0.298 111 194 238 
0.01281321 0.002115672 0.298 175 225 255 
0.01660149 0.002115672 0.298 86 187 234 
0.02038976 0.002115672 0.298 190 236 255 
0.02425917 0.002122772 0.299 105 183 240 
0.02806015 0.002122772 0.299 79 151 205 
0.0319677 0.002129872 0.3 151 197 255 
0.0357814 0.002129872 0.3 68 127 192 
0.0395951 0.002129872 0.3 72 124 190 
0.04340879 0.002129872 0.3 70 117 184 
0.04722249 0.002129872 0.3 60 111 172 
0.05103619 0.002129872 0.3 62 101 148 
0.05503273 0.002136971 0.301 68 99 136 
0.05885914 0.002136971 0.301 69 95 124 
0.0628938 0.002144071 0.302 68 92 120 
0.06673292 0.002144071 0.302 70 90 114 
0.07080573 0.00215117 0.303 71 93 117 
0.07465756 0.00215117 0.303 77 99 123 
0.07850939 0.00215117 0.303 161 170 180 
0.261154 0.005921043 0.8340001 16 12 13 
0.2668684 0.00581455 0.8190001 9 9 9 
0.2698315 0.005658359 0.7970001 8 11 10 
0.2711815 0.005480869 0.772 9 12 11 
0.2755356 0.005374376 0.757 10 13 12 
0.2798851 0.005274982 0.743 8 11 10 
0.2885515 0.005260783 0.7410001 8 11 10 
0.2995799 0.005289181 0.7450001 6 9 8 
0.3007539 0.00514719 0.725 8 8 8 
0.3074051 0.005104592 0.719 6 9 8 
0.3152244 0.005083294 0.716 12 12 12 
0.3229676 0.005061995 0.7130001 14 13 13 
0.3306344 0.005040696 0.71 17 17 17 
0.3396602 0.005040696 0.71 20 20 20 
0.3516325 0.005083294 0.716 24 24 20 
0.3607346 0.005083294 0.716 27 27 29 
-0.0549622 0.002919374 0.336 252 255 254 
-0.05084172 0.002928063 0.337 132 148 169 
-0.03325495 0.002563141 0.295 38 47 70 
-0.02950482 0.002563141 0.295 41 53 71 
-0.02584198 0.002571829 0.296 36 48 66 
-0.02207913 0.002571829 0.296 36 51 68 
-0.01831629 0.002571829 0.296 40 55 72 
-0.0146026 0.002580518 0.297 41 55 75 
-0.01082704 0.002580518 0.297 44 61 77 
-0.007051482 0.002580518 0.297 46 62 81 
-0.00327592 0.002580518 0.297 51 67 88 
0.0005013237 0.002589207 0.298 55 71 92 
0.004289597 0.002589207 0.298 56 76 102 
0.008077871 0.002589207 0.298 68 137 181 
0.01186614 0.002589207 0.298 104 175 223 
0.01565442 0.002589207 0.298 87 182 233 
0.01944269 0.002589207 0.298 94 189 240 
0.02323097 0.002589207 0.298 152 203 246 
0.02710991 0.002597895 0.299 88 158 213 
0.03091089 0.002597895 0.299 156 203 255 
0.03482797 0.002606584 0.3 68 126 194 
0.03851287 0.002597895 0.299 70 122 188 
0.04231386 0.002597895 0.299 75 122 189 
0.04626907 0.002606584 0.3 62 112 176 
0.05008277 0.002606584 0.3 63 101 153 
0.05389647 0.002606584 0.3 66 100 138 
0.05790253 0.002615273 0.301 70 95 127 
0.06193402 0.002623961 0.302 67 91 119 
0.06577314 0.002623961 0.302 71 91 115 
0.06984277 0.00263265 0.303 74 94 118 
0.0736946 0.00263265 0.303 76 98 122 
0.07754644 0.00263265 0.303 74 84 100 
0.261154 0.007246303 0.8340001 13 12 12 
0.2668684 0.007115975 0.8190001 8 8 8 
0.2718629 0.006976957 0.803 7 10 9 
0.2715327 0.006716298 0.7730001 8 11 10 
0.2755356 0.00657728 0.757 10 13 12 
0.2798851 0.006455639 0.743 8 11 10 
0.2885515 0.006438263 0.7410001 8 11 10 
0.2979714 0.006438263 0.7410001 6 9 8 
0.2999242 0.006281868 0.723 8 8 10 
0.3069775 0.006238425 0.7180001 6 9 8 
0.3147842 0.006212358 0.715 12 12 12 
0.3225146 0.006186293 0.712 18 17 17 
0.3301687 0.006160227 0.7090001 20 19 19 
0.3396602 0.006168915 0.71 23 23 23 
0.3526148 0.006238425 0.7180001 29 26 23 
0.3607346 0.006221047 0.716 30 27 24 
-0.03407658 0.00302163 0.294 37 43 70 
-0.03044235 0.003031908 0.295 42 52 70 
-0.0267827 0.003042185 0.296 37 49 67 
-0.02301985 0.003042185 0.296 40 52 70 
-0.019257 0.003042185 0.296 40 55 72 
-0.0155465 0.003052463 0.297 40 54 74 
-0.01177093 0.003052463 0.297 44 60 79 
-0.007995372 0.003052463 0.297 45 61 80 
-0.00421981 0.003052463 0.297 48 64 83 
-0.0004442489 0.003052463 0.297 52 68 89 
0.003342529 0.003062741 0.298 54 72 97 
0.007130803 0.003062741 0.298 70 126 168 
0.01091908 0.003062741 0.298 120 198 248 
0.01470735 0.003062741 0.298 101 184 237 
0.01849562 0.003062741 0.298 86 187 234 
0.0222839 0.003062741 0.298 196 234 255 
0.02615966 0.003073019 0.299 100 159 211 
0.02996065 0.003073019 0.299 83 147 209 
0.03387455 0.003083296 0.3 69 131 193 
0.03756262 0.003073019 0.299 72 126 193 
0.04136361 0.003073019 0.299 76 123 190 
0.04531564 0.003083296 0.3 67 117 183 
0.04912934 0.003083296 0.3 62 104 160 
0.05294304 0.003083296 0.3 66 101 143 
0.05694593 0.003093574 0.301 70 95 127 
0.06077234 0.003093574 0.301 67 91 119 
0.06481337 0.003103851 0.302 69 91 117 
0.06887981 0.003114129 0.303 72 92 116 
0.07273164 0.003114129 0.303 75 97 121 
0.07658348 0.003114129 0.303 75 91 112 
0.2570801 0.008612674 0.8380001 40 35 33 
0.2642186 0.00849962 0.827 11 10 10 
0.2697487 0.008345455 0.812 6 9 10 
0.2714482 0.008088513 0.7870001 6 9 8 
0.2728697 0.00784185 0.763 8 11 10 
0.2773845 0.007697962 0.749 8 11 12 
0.2838416 0.007615741 0.7410001 8 11 10 
0.2928657 0.007605463 0.74 7 10 9 
0.2981881 0.007502687 0.73 6 9 8 
0.3032562 0.007399911 0.72 9 9 9 
0.3106734 0.0073588 0.716 7 10 9 
0.317989 0.007317689 0.712 19 18 18 
0.3261215 0.007297134 0.71 24 24 20 
0.3337311 0.007266301 0.707 24 23 23 
0.3465968 0.007348523 0.715 37 29 28 
0.356681 0.007369077 0.717 37 29 28 
-0.03594529 0.003488808 0.294 88 91 119 
-0.03231742 0.003500675 0.295 37 48 69 
-0.02856728 0.003500675 0.295 40 52 70 
-0.02490127 0.003512542 0.296 37 49 67 
-0.02113842 0.003512542 0.296 39 54 71 
-0.01737557 0.003512542 0.296 40 55 72 
-0.01365871 0.003524408 0.297 43 58 75 
-0.009883152 0.003524408 0.297 42 59 75 
-0.006107591 0.003524408 0.297 47 63 82 
-0.00233203 0.003524408 0.297 50 64 86 
0.001448392 0.003536275 0.298 54 69 93 
0.005236666 0.003536275 0.298 56 86 120 
0.009024939 0.003536275 0.298 64 128 176 
0.01281321 0.003536275 0.298 193 232 255 
0.01660149 0.003536275 0.298 84 182 232 
0.02038976 0.003536275 0.298 92 187 236 
0.02417803 0.003536275 0.298 200 237 255 
0.02806015 0.003548142 0.299 79 158 208 
0.03186114 0.003548142 0.299 87 137 201 
0.0357814 0.003560008 0.3 61 122 189 
0.03946311 0.003548142 0.299 70 120 186 
0.0432641 0.003548142 0.299 68 115 182 
0.04722249 0.003560008 0.3 60 111 170 
0.05103619 0.003560008 0.3 64 101 149 
0.05503273 0.003571875 0.301 66 95 132 
0.05885914 0.003571875 0.301 67 93 122 
0.0628938 0.003583742 0.302 67 93 120 
0.06673292 0.003583742 0.302 71 91 115 
0.07080573 0.003595609 0.303 70 92 116 
0.07465756 0.003595609 0.303 77 99 123 
0.2514532 0.009932423 0.837 98 87 93 
0.2617803 0.009920557 0.836 13 12 12 
0.2671943 0.00973069 0.8200001 8 8 8 
0.27254 0.009552689 0.8050001 7 10 9 
0.271884 0.009184822 0.774 8 11 10 
0.2748077 0.008959355 0.7550001 9 12 11 
0.2802618 0.008828821 0.744 9 12 11 
0.2885515 0.008793221 0.7410001 9 12 11 
0.2955586 0.00872202 0.735 6 9 8 
0.2999242 0.00857962 0.723 6 9 10 
0.3065499 0.00850842 0.717 8 8 8 
0.3139037 0.008460954 0.7130001 20 20 20 
0.3216087 0.008425353 0.71 21 20 20 
0.329703 0.008401619 0.708 33 30 27 
0.3396602 0.008425353 0.71 49 34 35 
0.3521236 0.00850842 0.717 43 31 31 
0.3607346 0.008496554 0.716 41 29 29 
-0.03687964 0.003955986 0.294 123 140 156 
-0.03325495 0.003969442 0.295 38 49 70 
-0.02950482 0.003969442 0.295 38 50 68 
-0.02584198 0.003982898 0.296 36 48 66 
-0.02207913 0.003982898 0.296 38 50 68 
-0.01831629 0.003982898 0.296 39 54 71 
-0.0146026 0.003996354 0.297 42 57 74 
-0.01082704 0.003996354 0.297 42 59 75 
-0.007051482 0.003996354 0.297 45 61 80 
-0.00327592 0.003996354 0.297 52 66 86 
0.0004996414 0.003996354 0.297 55 69 91 
0.004289597 0.004009809 0.298 71 99 130 
0.008077871 0.004009809 0.298 75 129 171 
0.01186614 0.004009809 0.298 187 237 255 
0.01565442 0.004009809 0.298 83 181 231 
0.01944269 0.004009809 0.298 106 188 237 
0.02323097 0.004009809 0.298 203 239 255 
0.02710991 0.004023265 0.299 84 162 217 
0.03091089 0.004023265 0.299 67 131 193 
0.03471188 0.004023265 0.299 64 130 191 
0.03851287 0.004023265 0.299 69 123 190 
0.04231386 0.004023265 0.299 67 117 185 
0.04626907 0.004036721 0.3 62 112 176 
0.05008277 0.004036721 0.3 63 101 153 
0.05389647 0.004036721 0.3 67 96 135 
0.05790253 0.004050177 0.301 69 94 126 
0.06172894 0.004050177 0.301 64 88 116 
0.06577314 0.004063632 0.302 71 91 115 
0.06961226 0.004063632 0.302 73 93 117 
0.0736946 0.004077088 0.303 73 95 119 
0.2526549 0.01131627 0.841 85 76 83 
0.2617803 0.011249 0.836 15 11 12 
0.2668684 0.01102025 0.8190001 6 9 8 
0.2722014 0.01081841 0.804 7 10 9 
0.2715327 0.01040128 0.7730001 8 11 10 
0.2737157 0.01011871 0.752 9 12 11 
0.2806385 0.01002452 0.7450001 9 12 11 
0.2885515 0.0099707 0.7410001 11 11 11 
0.2951565 0.00987651 0.734 4 7 6 
0.2999242 0.009728498 0.723 6 9 8 
0.3065499 0.009647762 0.717 9 9 9 
0.3134634 0.009580484 0.712 25 25 25 
0.3207027 0.009526661 0.708 27 23 24 
0.329703 0.009526661 0.708 36 31 29 
0.3401386 0.009567028 0.711 60 43 45 
0.3521236 0.009647762 0.717 58 41 43 
0.3602308 0.009620851 0.715 55 40 41 
-0.06658724 0.004603702 0.306 157 157 159 
-0.03687964 0.004423164 0.294 82 96 116 
-0.03325495 0.004438209 0.295 36 50 70 
-0.02950482 0.004438209 0.295 38 50 68 
-0.02584198 0.004453253 0.296 34 49 66 
-0.02207913 0.004453253 0.296 38 50 68 
-0.01831629 0.004453253 0.296 39 54 71 
-0.0146026 0.004468299 0.297 42 57 74 
-0.01082704 0.004468299 0.297 44 61 77 
-0.007051482 0.004468299 0.297 45 61 80 
-0.00327592 0.004468299 0.297 50 64 84 
0.0004996414 0.004468299 0.297 55 69 89 
0.004289597 0.004483343 0.298 55 85 119 
0.008077871 0.004483343 0.298 66 115 159 
0.01186614 0.004483343 0.298 141 201 248 
0.01565442 0.004483343 0.298 87 185 235 
0.01944269 0.004483343 0.298 158 212 254 
0.02323097 0.004483343 0.298 179 224 255 
0.02701924 0.004483343 0.298 76 153 208 
0.03091089 0.004498388 0.299 68 137 199 
0.03471188 0.004498388 0.299 64 130 193 
0.03851287 0.004498388 0.299 64 123 188 
0.04231386 0.004498388 0.299 64 116 184 
0.04626907 0.004513433 0.3 63 110 175 
0.05008277 0.004513433 0.3 62 100 152 
0.05389647 0.004513433 0.3 67 96 135 
0.05790253 0.004528478 0.301 68 94 123 
0.06172894 0.004528478 0.301 66 90 120 
0.06577314 0.004543522 0.302 70 90 114 
0.06961226 0.004543522 0.302 70 92 116 
0.07345139 0.004543522 0.302 68 90 114 
0.2523545 0.01263761 0.84 87 76 82 
0.2617803 0.01257743 0.836 14 13 13 
0.2665426 0.01230663 0.818 6 9 8 
0.2718629 0.01208096 0.803 6 9 8 
0.2711815 0.01161457 0.772 8 11 10 
0.2733517 0.01129863 0.751 9 12 11 
0.2806385 0.01120836 0.7450001 9 12 11 
0.2885515 0.01114818 0.7410001 11 11 11 
0.2947544 0.01102782 0.733 4 7 6 
0.300339 0.01089242 0.724 8 8 8 
0.3065499 0.0107871 0.717 9 9 9 
0.3130231 0.01069684 0.711 31 30 30 
0.3202497 0.01063666 0.707 36 31 29 
0.3292373 0.01063666 0.707 38 30 29 
0.3401386 0.01069684 0.711 84 67 69 
0.3516325 0.01077206 0.716 80 63 65 
0.3592231 0.01072693 0.7130001 88 76 76 
-0.06755973 0.005089949 0.306 159 159 163 
-0.03794263 0.004906977 0.295 107 137 158 
-0.03407658 0.004890342 0.294 39 48 69 
-0.03044235 0.004906977 0.295 35 50 67 
-0.02669222 0.004906977 0.295 37 49 67 
-0.02301985 0.00492361 0.296 38 50 68 
-0.019257 0.00492361 0.296 38 53 70 
-0.01549415 0.00492361 0.296 40 55 72 
-0.01177093 0.004940244 0.297 44 61 77 
-0.007995372 0.004940244 0.297 44 60 79 
-0.00421981 0.004940244 0.297 48 64 83 
-0.0004442489 0.004940244 0.297 53 67 87 
0.003342529 0.004956878 0.298 55 79 109 
0.007130803 0.004956878 0.298 67 113 156 
0.01091908 0.004956878 0.298 53 129 175 
0.01470735 0.004956878 0.298 81 176 227 
0.01849562 0.004956878 0.298 195 232 255 
0.0222839 0.004956878 0.298 84 166 215 
0.02607217 0.004956878 0.298 76 158 209 
0.02996065 0.004973512 0.299 148 212 255 
0.03376164 0.004973512 0.299 59 127 192 
0.03756262 0.004973512 0.299 60 124 188 
0.04136361 0.004973512 0.299 60 114 181 
0.04531564 0.004990146 0.3 59 113 178 
0.04912934 0.004990146 0.3 63 104 157 
0.05294304 0.004990146 0.3 69 98 139 
0.05694593 0.005006779 0.301 67 96 124 
0.06077234 0.005006779 0.301 66 90 120 
0.06481337 0.005023413 0.302 66 88 114 
0.06865248 0.005023413 0.302 69 91 115 
0.07249161 0.005023413 0.302 69 91 115 
0.2523545 0.01397241 0.84 111 99 99 
0.2617803 0.01390587 0.836 14 13 13 
0.2662167 0.01358983 0.817 6 9 8 
0.2711858 0.01332369 0.8010001 6 9 8 
0.2708302 0.01282467 0.771 7 10 9 
0.2726237 0.01245873 0.749 9 12 11 
0.2810152 0.01240883 0.7460001 9 12 11 
0.2889409 0.01234229 0.742 10 13 12 
0.2947544 0.01219259 0.733 6 9 8 
0.300339 0.01204288 0.724 8 8 8 
0.3065499 0.01192645 0.717 9 9 9 
0.3125829 0.01181001 0.71 34 33 33 
0.3197968 0.01174348 0.706 45 37 36 
0.3292373 0.01176011 0.707 44 34 34 
0.3401386 0.01182664 0.711 100 84 89 
0.3506503 0.01187655 0.714 102 86 91 
0.3582155 0.01182664 0.711 101 90 94 
-0.06755973 0.005576195 0.306 159 159 163 
-0.03794263 0.005375743 0.295 103 128 151 
-0.03419249 0.005375743 0.295 40 49 70 
-0.03044235 0.005375743 0.295 35 50 67 
-0.02669222 0.005375743 0.295 37 49 67 
-0.02301985 0.005393966 0.296 38 50 68 
-0.019257 0.005393966 0.296 38 53 70 
-0.01549415 0.005393966 0.296 41 55 75 
-0.01177093 0.005412189 0.297 45 59 79 
-0.007995372 0.005412189 0.297 45 61 80 
-0.00421981 0.005412189 0.297 48 64 83 
-0.0004442489 0.005412189 0.297 52 66 88 
0.003331313 0.005412189 0.297 56 82 111 
0.007106874 0.005412189 0.297 70 116 159 
0.01091908 0.005430412 0.298 63 139 187 
0.01470735 0.005430412 0.298 89 172 225 
0.01849562 0.005430412 0.298 197 233 255 
0.0222839 0.005430412 0.298 78 162 210 
0.02607217 0.005430412 0.298 76 160 208 
0.02996065 0.005448635 0.299 74 143 203 
0.03376164 0.005448635 0.299 54 127 192 
0.03756262 0.005448635 0.299 60 124 188 
0.04136361 0.005448635 0.299 60 114 181 
0.04531564 0.005466857 0.3 58 112 177 
0.04912934 0.005466857 0.3 63 104 155 
0.05294304 0.005466857 0.3 69 98 139 
0.05694593 0.005485081 0.301 66 95 123 
0.06077234 0.005485081 0.301 67 91 121 
0.06481337 0.005503303 0.302 65 87 113 
0.06865248 0.005503303 0.302 69 91 115 
0.07249161 0.005503303 0.302 66 88 112 
0.2547205 0.01528898 0.839 57 51 55 
0.262223 0.01510675 0.8290001 11 10 10 
0.2678261 0.01483341 0.814 4 7 6 
0.271681 0.01448717 0.795 6 9 8 
0.2690271 0.01383115 0.7590001 7 10 9 
0.274637 0.0136307 0.748 7 10 9 
0.2833861 0.01359425 0.7460001 9 12 11 
0.2901213 0.01346669 0.739 8 11 10 
0.2962734 0.01332091 0.731 6 9 8 
0.30264 0.01319335 0.724 8 8 8 
0.3079672 0.01302934 0.715 13 13 13 
0.3139524 0.01290178 0.708 38 32 34 
0.3220405 0.01286534 0.706 44 34 32 
0.3310154 0.01286534 0.706 79 63 68 
0.3423982 0.01295645 0.711 111 95 100 
0.3514366 0.01295645 0.711 118 107 115 
-0.0702469 0.006042629 0.305 159 158 165 
-0.06658724 0.006062442 0.306 158 158 162 
-0.03794263 0.00584451 0.295 59 79 103 
-0.03419249 0.00584451 0.295 39 48 69 
-0.03044235 0.00584451 0.295 34 49 66 
-0.02669222 0.00584451 0.295 36 48 66 
-0.02294208 0.00584451 0.295 37 49 67 
-0.019257 0.005864322 0.296 38 53 70 
-0.01549415 0.005864322 0.296 41 55 75 
-0.01177093 0.005884134 0.297 45 59 79 
-0.007995372 0.005884134 0.297 46 60 80 
-0.00421981 0.005884134 0.297 49 63 83 
-0.0004442489 0.005884134 0.297 51 67 88 
0.003331313 0.005884134 0.297 53 81 112 
0.007106874 0.005884134 0.297 41 90 132 
0.01091908 0.005903946 0.298 69 140 188 
0.01470735 0.005903946 0.298 121 189 240 
0.01849562 0.005903946 0.298 160 205 244 
0.0222839 0.005903946 0.298 62 149 196 
0.02607217 0.005903946 0.298 73 157 205 
0.02996065 0.005923758 0.299 75 146 203 
0.03376164 0.005923758 0.299 51 124 189 
0.03756262 0.005923758 0.299 62 124 188 
0.04136361 0.005923758 0.299 60 114 181 
0.04531564 0.00594357 0.3 58 112 175 
0.04912934 0.00594357 0.3 62 103 154 
0.05294304 0.00594357 0.3 67 96 135 
0.05694593 0.005963382 0.301 65 94 122 
0.06077234 0.005963382 0.301 67 91 119 
0.06481337 0.005983194 0.302 65 87 113 
0.06865248 0.005983194 0.302 71 91 115 
0.07249161 0.005983194 0.302 69 91 115 
0.2567733 0.01658256 0.837 47 42 38 
0.2632602 0.01632501 0.8240001 9 9 9 
0.2680877 0.0159882 0.807 4 7 6 
0.2714482 0.01559197 0.7870001 4 7 6 
0.2682206 0.01485892 0.7500001 8 11 10 
0.2773845 0.01483911 0.749 7 10 9 
0.2861399 0.01479949 0.747 15 18 17 
0.2916784 0.01460137 0.737 7 10 9 
0.2981881 0.01446269 0.73 6 9 8 
0.3045197 0.014324 0.723 8 8 8 
0.3093717 0.01412588 0.7130001 27 27 27 
0.3153093 0.0139872 0.706 36 30 32 
0.3238249 0.01396739 0.705 50 38 38 
0.3337311 0.01400701 0.707 118 102 107 
0.3446578 0.01408626 0.711 128 110 116 
0.3527013 0.01404664 0.7090001 133 122 130 
-0.06950472 0.006548688 0.306 160 159 166 
-0.06561475 0.006548688 0.306 155 155 157 
-0.03807124 0.006334678 0.296 31 49 74 
-0.03419249 0.006313277 0.295 37 48 69 
-0.03044235 0.006313277 0.295 34 49 66 
-0.02669222 0.006313277 0.295 36 48 66 
-0.02294208 0.006313277 0.295 38 50 68 
-0.019257 0.006334678 0.296 38 50 68 
-0.01549415 0.006334678 0.296 41 55 75 
-0.01177093 0.00635608 0.297 46 60 80 
-0.007995372 0.00635608 0.297 46 60 80 
-0.00421981 0.00635608 0.297 49 63 83 
-0.0004442489 0.00635608 0.297 52 66 88 
0.003331313 0.00635608 0.297 61 98 130 
0.007106874 0.00635608 0.297 77 128 171 
0.01091908 0.00637748 0.298 71 139 186 
0.01470735 0.00637748 0.298 161 220 255 
0.01855769 0.006398881 0.299 117 183 233 
0.0222839 0.00637748 0.298 82 166 214 
0.02607217 0.00637748 0.298 80 158 208 
0.02996065 0.006398881 0.299 78 152 208 
0.03376164 0.006398881 0.299 58 131 196 
0.03756262 0.006398881 0.299 62 124 188 
0.04136361 0.006398881 0.299 60 114 181 
0.04531564 0.006420282 0.3 58 110 174 
0.04912934 0.006420282 0.3 61 102 153 
0.05294304 0.006420282 0.3 67 96 135 
0.05675674 0.006420282 0.3 65 93 124 
0.06077234 0.006441684 0.301 67 91 119 
0.06481337 0.006463084 0.302 63 88 113 
0.06865248 0.006463084 0.302 71 91 115 
0.07249161 0.006463084 0.302 81 101 125 
0.2535061 0.01786979 0.835 65 59 63 
0.2615904 0.01769858 0.827 10 10 10 
0.2671681 0.01737756 0.812 4 7 6 
0.2699723 0.01690674 0.79 4 7 6 
0.2683182 0.01620051 0.757 7 10 9 
0.2742698 0.0159865 0.747 7 10 11 
0.2852854 0.01607211 0.751 6 12 10 
0.2905139 0.0158367 0.74 9 12 11 
0.2966787 0.01566549 0.7320001 4 10 8 
0.303476 0.01553708 0.726 8 8 8 
0.3083979 0.01532307 0.716 22 22 22 
0.313509 0.01513046 0.707 34 30 31 
0.3211282 0.01506626 0.7040001 48 36 36 
0.3310154 0.01510906 0.706 118 103 104 
0.341435 0.01517327 0.7090001 131 118 122 
0.3494595 0.01513046 0.707 139 128 136 
-0.07121621 0.007011944 0.305 159 158 165 
-0.06755973 0.007034935 0.306 158 158 162 
-0.06245873 0.007471744 0.325 161 160 162 
-0.04103153 0.006828025 0.297 188 198 214 
-0.03700509 0.006782045 0.295 31 45 65 
-0.03325495 0.006782045 0.295 34 48 68 
-0.02950482 0.006782045 0.295 33 48 65 
-0.02575468 0.006782045 0.295 35 47 65 
-0.02200454 0.006782045 0.295 37 49 67 
-0.01831629 0.006805034 0.296 39 54 71 
-0.01455344 0.006805034 0.296 42 56 76 
-0.01082704 0.006828025 0.297 46 60 80 
-0.007051482 0.006828025 0.297 45 59 79 
-0.00327592 0.006828025 0.297 49 63 83 
0.0004996414 0.006828025 0.297 53 67 89 
0.004275203 0.006828025 0.297 64 108 142 
0.008050764 0.006828025 0.297 79 137 180 
0.01186614 0.006851015 0.298 80 157 196 
0.01565442 0.006851015 0.298 192 233 255 
0.01950794 0.006874005 0.299 111 179 228 
0.02323097 0.006851015 0.298 67 151 201 
0.02701924 0.006851015 0.298 107 171 223 
0.03091089 0.006874005 0.299 55 132 189 
0.03471188 0.006874005 0.299 54 127 192 
0.03851287 0.006874005 0.299 67 126 191 
0.04231386 0.006874005 0.299 62 119 185 
0.04626907 0.006896995 0.3 56 107 168 
0.05008277 0.006896995 0.3 65 102 150 
0.05389647 0.006896995 0.3 65 95 129 
0.05790253 0.006919985 0.301 69 95 124 
0.06172894 0.006919985 0.301 68 93 118 
0.06577314 0.006942974 0.302 66 91 116 
0.06961226 0.006942974 0.302 73 93 117 
0.0736946 0.006965964 0.303 74 88 110 
0.2522917 0.01910467 0.831 66 60 64 
0.2612741 0.01898973 0.826 10 10 10 
0.266181 0.0185989 0.809 4 7 6 
0.2692888 0.01811611 0.788 6 9 8 
0.2679637 0.01738043 0.756 6 9 8 
0.2742698 0.01717352 0.747 7 10 11 
0.2856653 0.01728847 0.752 6 12 10 
0.2909065 0.01703558 0.7410001 10 13 12 
0.2970839 0.01685166 0.733 4 10 8 
0.303894 0.01671372 0.7270001 9 9 9 
0.3083979 0.01646083 0.716 23 22 22 
0.3139524 0.01627691 0.708 34 30 31 
0.3211282 0.01618495 0.7040001 50 38 38 
0.3310154 0.01623093 0.706 125 109 114 
0.3409534 0.01627691 0.708 135 122 128 
0.3484709 0.01620794 0.705 146 135 143 
-0.07121621 0.007496602 0.305 159 158 165 
-0.06755973 0.007521181 0.306 158 158 162 
-0.06245873 0.007988183 0.325 122 111 117 
-0.05886563 0.008061919 0.328 123 103 104 
-0.03995267 0.00727539 0.296 191 201 217 
-0.03606756 0.007250812 0.295 33 47 67 
-0.03231742 0.007250812 0.295 33 47 67 
-0.02856728 0.007250812 0.295 36 48 66 
-0.02481715 0.007250812 0.295 35 47 65 
-0.02106701 0.007250812 0.295 38 50 68 
-0.01737557 0.00727539 0.296 39 54 71 
-0.01361272 0.00727539 0.296 42 56 76 
-0.009883152 0.00729997 0.297 46 60 80 
-0.006107591 0.00729997 0.297 46 62 83 
-0.00233203 0.00729997 0.297 49 63 83 
0.001443532 0.00729997 0.297 55 70 94 
0.005219093 0.00729997 0.297 64 105 140 
0.009024939 0.007324549 0.298 71 133 177 
0.01281321 0.007324549 0.298 68 144 190 
0.01660149 0.007324549 0.298 136 187 232 
0.02038976 0.007324549 0.298 195 240 255 
0.02417803 0.007324549 0.298 62 143 197 
0.02796631 0.007324549 0.298 138 194 247 
0.03186114 0.007349128 0.299 59 130 189 
0.03566213 0.007349128 0.299 54 122 187 
0.03946311 0.007349128 0.299 60 119 184 
0.0432641 0.007349128 0.299 58 115 179 
0.04722249 0.007373707 0.3 56 102 163 
0.05103619 0.007373707 0.3 62 97 139 
0.05484989 0.007373707 0.3 66 96 128 
0.05885914 0.007398286 0.301 67 93 122 
0.06268555 0.007398286 0.301 68 90 116 
0.06673292 0.007422865 0.302 63 88 113 
0.07057205 0.007422865 0.302 80 100 124 
0.2431924 0.02032685 0.827 247 228 222 
0.2552394 0.02044975 0.832 51 46 44 
0.2619822 0.0201548 0.8200001 9 9 9 
0.2657622 0.01966322 0.8 4 7 6 
0.2693787 0.01919622 0.781 6 9 8 
0.267863 0.01840969 0.749 8 11 10 
0.2773845 0.01840969 0.749 6 9 10 
0.2880552 0.01848342 0.752 10 13 12 
0.2928657 0.01818848 0.74 8 11 10 
0.299005 0.01799184 0.7320001 6 9 8 
0.3057833 0.01784437 0.726 10 10 10 
0.3098056 0.01754942 0.714 26 25 25 
0.3153093 0.01735279 0.706 37 31 33 
0.3233656 0.01730363 0.7040001 66 51 50 
0.3337311 0.01737737 0.707 135 117 125 
0.342234 0.01735279 0.706 141 125 134 
0.350214 0.01730363 0.7040001 156 142 153 
-0.07047722 0.008007428 0.306 159 158 165 
-0.06245873 0.008504621 0.325 113 95 101 
-0.05868616 0.008556957 0.327 127 106 105 
-0.04089338 0.007745747 0.296 187 197 211 
-0.03713053 0.007745747 0.296 32 46 66 
-0.03325495 0.007719579 0.295 34 48 68 
-0.02950482 0.007719579 0.295 34 49 66 
-0.02575468 0.007719579 0.295 35 47 65 
-0.02200454 0.007719579 0.295 37 49 67 
-0.01831629 0.007745747 0.296 39 54 71 
-0.01455344 0.007745747 0.296 41 56 73 
-0.01082704 0.007771915 0.297 46 61 78 
-0.007051482 0.007771915 0.297 45 61 82 
-0.00327592 0.007771915 0.297 48 62 84 
0.0004996414 0.007771915 0.297 55 68 93 
0.004275203 0.007771915 0.297 66 110 146 
0.008050764 0.007771915 0.297 59 112 159 
0.01186614 0.007798083 0.298 88 164 210 
0.01565442 0.007798083 0.298 110 181 231 
0.01950794 0.007824251 0.299 101 180 230 
0.02323097 0.007798083 0.298 60 144 192 
0.02701924 0.007798083 0.298 79 138 190 
0.03080751 0.007798083 0.298 65 142 197 
0.03471188 0.007824251 0.299 60 131 192 
0.03851287 0.007824251 0.299 63 122 187 
0.04231386 0.007824251 0.299 58 115 181 
0.04626907 0.00785042 0.3 57 105 165 
0.05008277 0.00785042 0.3 63 101 144 
0.05389647 0.00785042 0.3 66 96 130 
0.05771016 0.00785042 0.3 68 94 123 
0.06172894 0.007876588 0.301 70 92 118 
0.06577314 0.007902755 0.302 64 89 114 
0.06961226 0.007902755 0.302 77 97 121 
0.0736946 0.007928924 0.303 123 135 151 
0.2510773 0.02164099 0.827 68 62 66 
0.2603251 0.02153632 0.823 10 10 10 
0.2648649 0.02106529 0.8050001 8 8 8 
0.2675801 0.0204896 0.7830001 6 9 8 
0.2679637 0.01978306 0.756 7 10 9 
0.274637 0.01957371 0.748 6 9 10 
0.2868049 0.01975689 0.7550001 8 11 10 
0.2920842 0.01946904 0.744 10 13 12 
0.2974893 0.01920736 0.734 6 9 10 
0.305148 0.01910269 0.73 9 9 9 
0.3088287 0.0187625 0.717 23 22 22 
0.3139524 0.01852699 0.708 35 30 28 
0.3211282 0.01842232 0.7040001 47 32 33 
0.3310154 0.01847465 0.706 134 116 124 
0.3395087 0.01844849 0.705 140 127 135 
0.3469881 0.01836998 0.702 154 138 147 
-0.0714497 0.008493674 0.306 158 157 164 
-0.06142585 0.009021059 0.325 117 96 95 
-0.05782321 0.00910433 0.328 131 110 109 
-0.03995267 0.008216103 0.296 104 113 136 
-0.03606756 0.008188345 0.295 34 48 68 
-0.03231742 0.008188345 0.295 33 48 65 
-0.02856728 0.008188345 0.295 36 48 66 
-0.02481715 0.008188345 0.295 35 47 65 
-0.02106701 0.008188345 0.295 40 52 70 
-0.01737557 0.008216103 0.296 39 54 71 
-0.01361272 0.008216103 0.296 42 57 74 
-0.009883152 0.00824386 0.297 46 61 78 
-0.006107591 0.00824386 0.297 46 62 81 
-0.00233203 0.00824386 0.297 47 63 82 
0.001443532 0.00824386 0.297 50 69 98 
0.005219093 0.00824386 0.297 51 92 129 
0.009024939 0.008271617 0.298 66 121 168 
0.01281321 0.008271617 0.298 90 170 217 
0.01660149 0.008271617 0.298 127 199 251 
0.02038976 0.008271617 0.298 197 237 255 
0.02417803 0.008271617 0.298 59 143 191 
0.02796631 0.008271617 0.298 61 122 175 
0.03175458 0.008271617 0.298 61 132 191 
0.03566213 0.008299374 0.299 55 126 187 
0.03946311 0.008299374 0.299 54 116 180 
0.0432641 0.008299374 0.299 57 111 176 
0.04722249 0.008327131 0.3 58 102 159 
0.05103619 0.008327131 0.3 61 97 136 
0.05484989 0.008327131 0.3 68 93 127 
0.05885914 0.008354888 0.301 67 93 122 
0.06268555 0.008354888 0.301 69 91 117 
0.06673292 0.008382645 0.302 65 87 113 
0.07080573 0.008410403 0.303 79 101 125 
0.2402733 0.02292737 0.826 249 230 224 
0.2510773 0.02295513 0.827 67 63 66 
0.2596925 0.02278858 0.821 10 10 10 
0.2642069 0.02228895 0.803 8 8 8 
0.2668966 0.0216783 0.781 6 9 8 
0.2679637 0.02098437 0.756 7 10 9 
0.274637 0.02076231 0.748 6 9 10 
0.2871848 0.02098437 0.756 8 11 10 
0.2924769 0.02067904 0.7450001 9 12 11 
0.2991104 0.02048474 0.738 6 9 10 
0.305566 0.02029044 0.731 10 10 10 
0.3092594 0.0199296 0.7180001 20 19 19 
0.3139524 0.01965203 0.708 35 30 28 
0.3211282 0.019541 0.7040001 102 90 90 
0.3310154 0.01959652 0.706 138 120 128 
0.3390272 0.019541 0.7040001 146 130 139 
0.3464938 0.01945773 0.701 157 139 149 
-0.0716832 0.009009266 0.307 156 159 162 
-0.06142585 0.009537498 0.325 119 98 97 
-0.05782321 0.009625535 0.328 133 110 109 
-0.03995267 0.008686459 0.296 43 50 74 
-0.03606756 0.008657113 0.295 34 48 68 
-0.03231742 0.008657113 0.295 33 48 65 
-0.02856728 0.008657113 0.295 34 49 66 
-0.02481715 0.008657113 0.295 35 47 65 
-0.02106701 0.008657113 0.295 40 52 70 
-0.01737557 0.008686459 0.296 40 55 72 
-0.01361272 0.008686459 0.296 42 57 74 
-0.009883152 0.008715806 0.297 45 60 77 
-0.006107591 0.008715806 0.297 46 62 81 
-0.00233203 0.008715806 0.297 48 64 83 
0.001443532 0.008715806 0.297 67 95 128 
0.005219093 0.008715806 0.297 67 106 144 
0.009024939 0.008745151 0.298 64 115 160 
0.01281321 0.008745151 0.298 90 170 215 
0.01660149 0.008745151 0.298 101 180 232 
0.02038976 0.008745151 0.298 194 229 255 
0.02417803 0.008745151 0.298 76 158 207 
0.02796631 0.008745151 0.298 77 137 193 
0.03175458 0.008745151 0.298 61 130 190 
0.03566213 0.008774498 0.299 63 134 195 
0.03946311 0.008774498 0.299 55 117 181 
0.0432641 0.008774498 0.299 56 110 175 
0.04722249 0.008803844 0.3 60 102 158 
0.05103619 0.008803844 0.3 61 94 137 
0.05484989 0.008803844 0.3 67 92 126 
0.05885914 0.00883319 0.301 67 93 122 
0.06268555 0.00883319 0.301 69 91 117 
0.06673292 0.008862535 0.302 66 88 114 
0.07080573 0.008891881 0.303 79 101 125 
0.2399824 0.02421057 0.825 253 235 224 
0.2507737 0.02423992 0.826 67 63 66 
0.2596925 0.02409318 0.821 10 10 10 
0.2632198 0.02347692 0.8 8 8 8 
0.2662131 0.02286065 0.779 6 9 8 
0.2679637 0.02218569 0.756 7 10 9 
0.2753713 0.02200961 0.7500001 6 9 10 
0.2871848 0.02218569 0.756 8 11 10 
0.2928694 0.02189223 0.7460001 8 11 10 
0.299921 0.02171615 0.74 6 9 10 
0.3059841 0.02148138 0.7320001 10 10 10 
0.3096901 0.02109988 0.719 20 20 16 
0.3143959 0.02080642 0.7090001 35 30 28 
0.3211282 0.02065969 0.7040001 105 92 96 
0.3305466 0.02068903 0.705 142 124 132 
0.3385456 0.02063034 0.703 148 132 141 
0.3459995 0.0205423 0.7 158 140 150 
-0.07265887 0.009497102 0.307 155 155 159 
-0.06245873 0.01005394 0.325 115 94 91 
-0.05850669 0.01008487 0.326 132 109 106 
-0.04169276 0.00912588 0.295 183 198 211 
-0.03794263 0.00912588 0.295 35 46 69 
-0.03419249 0.00912588 0.295 33 48 65 
-0.03044235 0.00912588 0.295 34 49 66 
-0.02669222 0.00912588 0.295 33 48 65 
-0.02294208 0.00912588 0.295 36 51 68 
-0.019257 0.009156815 0.296 38 53 70 
-0.01549415 0.009156815 0.296 41 56 73 
-0.0117313 0.009156815 0.296 45 60 77 
-0.007995372 0.009187751 0.297 47 61 81 
-0.00421981 0.009187751 0.297 48 64 83 
-0.0004442489 0.009187751 0.297 54 72 99 
0.003331313 0.009187751 0.297 56 90 126 
0.007106874 0.009187751 0.297 128 158 202 
0.01091908 0.009218685 0.298 78 149 197 
0.01470735 0.009218685 0.298 75 166 209 
0.01849562 0.009218685 0.298 148 214 255 
0.0222839 0.009218685 0.298 71 158 205 
0.02607217 0.009218685 0.298 83 142 194 
0.02986044 0.009218685 0.298 78 144 203 
0.03364872 0.009218685 0.298 59 125 188 
0.03756262 0.009249621 0.299 58 120 184 
0.04136361 0.009249621 0.299 56 113 179 
0.04516459 0.009249621 0.299 55 106 165 
0.04912934 0.009280556 0.3 61 100 145 
0.05294304 0.009280556 0.3 64 93 130 
0.05675674 0.009280556 0.3 63 91 122 
0.06077234 0.009311492 0.301 66 90 118 
0.06481337 0.009342426 0.302 68 90 116 
0.06865248 0.009342426 0.302 77 99 123 
0.07273164 0.009373361 0.303 173 185 199 
0.244929 0.0254906 0.8240001 247 227 217 
0.2557139 0.02552153 0.825 19 18 18 
0.2616842 0.02508844 0.811 10 10 10 
0.2636094 0.02431506 0.786 4 7 6 
0.2676837 0.02378916 0.7690001 6 9 8 
0.270965 0.02323233 0.751 8 11 10 
0.2823795 0.023387 0.756 6 9 10 
0.2904451 0.02326326 0.752 8 11 10 
0.2968132 0.02301578 0.744 6 9 8 
0.3038013 0.02283017 0.738 10 10 10 
0.3076662 0.02242801 0.725 16 15 15 
0.3120748 0.02208772 0.714 30 25 23 
0.3171032 0.02180931 0.705 77 65 63 
0.3256029 0.02177837 0.7040001 130 117 123 
0.3345524 0.02177837 0.7040001 152 134 144 
0.3420381 0.02168556 0.701 153 137 146 
0.3504488 0.02165463 0.7 172 154 164 
-0.06575907 0.0106029 0.326 84 83 87 
-0.06142585 0.01057037 0.325 124 101 98 
-0.05764693 0.01063542 0.327 134 108 106 
-0.04075523 0.009594646 0.295 62 68 95 
-0.03700509 0.009594646 0.295 37 49 67 
-0.03314222 0.009562122 0.294 33 48 65 
-0.02950482 0.009594646 0.295 33 48 65 
-0.02575468 0.009594646 0.295 33 48 65 
-0.02200454 0.009594646 0.295 38 50 68 
-0.01831629 0.009627171 0.296 40 54 74 
-0.01455344 0.009627171 0.296 41 56 73 
-0.01079059 0.009627171 0.296 43 58 75 
-0.007051482 0.009659695 0.297 46 60 80 
-0.00327592 0.009659695 0.297 48 64 83 
0.0004996414 0.009659695 0.297 58 83 117 
0.004275203 0.009659695 0.297 59 94 127 
0.008077871 0.009692219 0.298 148 177 216 
0.01186614 0.009692219 0.298 79 158 203 
0.01565442 0.009692219 0.298 78 169 212 
0.01944269 0.009692219 0.298 187 231 255 
0.02323097 0.009692219 0.298 68 158 204 
0.02701924 0.009692219 0.298 77 143 193 
0.03080751 0.009692219 0.298 53 124 183 
0.03459579 0.009692219 0.298 55 121 184 
0.03851287 0.009724744 0.299 53 115 179 
0.04231386 0.009724744 0.299 57 111 176 
0.04626907 0.009757267 0.3 57 104 162 
0.05008277 0.009757267 0.3 59 94 136 
0.05389647 0.009757267 0.3 64 92 125 
0.05771016 0.009757267 0.3 67 93 122 
0.06172894 0.009789793 0.301 66 91 116 
0.06577314 0.009822316 0.302 68 90 116 
0.06961226 0.009822316 0.302 77 99 123 
0.0736946 0.00985484 0.303 230 237 245 
0.2475477 0.02679996 0.8240001 87 71 80 
0.2573964 0.02673491 0.822 11 11 11 
0.2619807 0.02614948 0.804 9 9 9 
0.2644145 0.02540142 0.781 7 10 9 
0.26802 0.02481598 0.763 7 10 9 
0.2737157 0.02445822 0.752 7 10 11 
0.2851588 0.02462084 0.757 7 10 11 
0.2916668 0.02436064 0.749 9 12 13 
0.2991777 0.02419802 0.744 6 9 8 
0.3057319 0.02397035 0.737 13 12 12 
0.3086877 0.02348249 0.7220001 21 18 15 
0.3134634 0.02315725 0.712 39 29 29 
0.3188908 0.02289706 0.7040001 100 92 91 
0.3278403 0.02289706 0.7040001 135 122 128 
0.3363114 0.02286453 0.703 156 140 149 
0.3437749 0.02276696 0.7 156 140 149 
0.3521697 0.02273444 0.6990001 180 162 172 
-0.06349161 0.01108681 0.325 110 89 88 
-0.0593601 0.01108681 0.325 131 105 103 
-0.04342014 0.0100293 0.294 188 197 209 
-0.03981769 0.01006341 0.295 38 47 68 
-0.03594529 0.0100293 0.294 36 48 66 
-0.03220787 0.0100293 0.294 33 48 65 
-0.02856728 0.01006341 0.295 33 48 65 
-0.02481715 0.01006341 0.295 34 49 66 
-0.02106701 0.01006341 0.295 38 53 70 
-0.01737557 0.01009753 0.296 39 53 73 
-0.01361272 0.01009753 0.296 42 57 74 
-0.009849875 0.01009753 0.296 43 58 75 
-0.006107591 0.01013164 0.297 46 60 80 
-0.00233203 0.01013164 0.297 49 67 90 
0.001443532 0.01013164 0.297 60 90 124 
0.005219093 0.01013164 0.297 58 89 126 
0.009024939 0.01016575 0.298 90 118 164 
0.01281321 0.01016575 0.298 54 137 181 
0.01660149 0.01016575 0.298 76 164 206 
0.02038976 0.01016575 0.298 161 210 254 
0.02417803 0.01016575 0.298 164 228 255 
0.02796631 0.01016575 0.298 58 124 183 
0.03175458 0.01016575 0.298 56 133 190 
0.03554286 0.01016575 0.298 55 121 184 
0.03946311 0.01019987 0.299 61 120 183 
0.0432641 0.01019987 0.299 53 106 167 
0.04722249 0.01023398 0.3 66 107 158 
0.05103619 0.01023398 0.3 59 93 133 
0.05484989 0.01023398 0.3 64 92 123 
0.05885914 0.01026809 0.301 63 89 118 
0.06268555 0.01026809 0.301 69 94 119 
0.06673292 0.01030221 0.302 72 92 116 
0.07057205 0.01030221 0.302 80 95 119 
0.2417221 0.02804111 0.822 215 206 199 
0.2533987 0.02817756 0.826 36 31 29 
0.2597457 0.02773409 0.813 11 11 11 
0.2624402 0.02694948 0.79 6 6 6 
0.2662745 0.02633544 0.772 6 9 8 
0.2700087 0.02575552 0.7550001 8 11 10 
0.2799769 0.02578963 0.756 7 10 11 
0.2888213 0.0257214 0.754 7 10 11 
0.2952403 0.0254485 0.7460001 7 10 9 
0.3034982 0.02534616 0.743 11 11 11 
0.3062045 0.02480035 0.7270001 18 17 17 
0.3106734 0.0244251 0.716 37 27 27 
0.3157559 0.02411808 0.707 86 75 79 
0.3229062 0.02398163 0.703 124 111 119 
0.3323151 0.02401574 0.7040001 155 137 145 
0.340295 0.02394751 0.702 156 140 149 
0.3477267 0.02384518 0.6990001 165 148 160 
-0.06452448 0.01160325 0.325 95 78 80 
-0.06039298 0.01160325 0.325 128 102 100 
-0.05643458 0.01163895 0.326 128 100 99 
-0.04061707 0.01049648 0.294 45 49 74 
-0.03687964 0.01049648 0.294 36 48 66 
-0.03314222 0.01049648 0.294 33 48 65 
-0.0294048 0.01049648 0.294 33 48 65 
-0.02575468 0.01053218 0.295 33 48 65 
-0.02200454 0.01053218 0.295 36 51 68 
-0.01831629 0.01056788 0.296 40 55 72 
-0.01455344 0.01056788 0.296 40 55 72 
-0.01079059 0.01056788 0.296 43 58 75 
-0.007051482 0.01060359 0.297 46 61 78 
-0.00327592 0.01060359 0.297 46 64 87 
0.0004996414 0.01060359 0.297 54 79 111 
0.004275203 0.01060359 0.297 63 95 129 
0.008050764 0.01060359 0.297 199 229 255 
0.01186614 0.01063929 0.298 63 131 178 
0.01565442 0.01063929 0.298 76 164 206 
0.01944269 0.01063929 0.298 126 186 233 
0.02323097 0.01063929 0.298 67 158 204 
0.02701924 0.01063929 0.298 55 132 187 
0.03080751 0.01063929 0.298 61 135 191 
0.03459579 0.01063929 0.298 50 119 181 
0.03851287 0.01067499 0.299 54 116 180 
0.04231386 0.01067499 0.299 53 108 168 
0.04611484 0.01067499 0.299 58 105 159 
0.05008277 0.01071069 0.3 59 93 133 
0.05389647 0.01071069 0.3 64 92 125 
0.05771016 0.01071069 0.3 64 93 121 
0.06172894 0.0107464 0.301 67 92 117 
0.06577314 0.0107821 0.302 69 91 115 
0.06961226 0.0107821 0.302 78 98 120 
0.07345139 0.0107821 0.302 237 236 243 
0.2501665 0.0294187 0.8240001 35 31 34 
0.2587436 0.02920449 0.818 11 11 11 
0.2619037 0.02841904 0.7960001 8 8 8 
0.2651879 0.02770499 0.776 8 11 10 
0.2690271 0.02709805 0.7590001 8 11 10 
0.2772071 0.02695524 0.7550001 6 9 10 
0.2868049 0.02695524 0.7550001 7 10 11 
0.2936546 0.02670533 0.748 8 11 10 
0.3019475 0.02659822 0.7450001 10 10 10 
0.305566 0.02609839 0.731 18 17 17 
0.3092594 0.02563426 0.7180001 36 31 29 
0.3148393 0.02534864 0.71 77 64 68 
0.3211282 0.02513443 0.7040001 117 104 108 
0.3296088 0.02509872 0.703 147 131 138 
0.338064 0.02506302 0.702 161 143 153 
0.3455052 0.02495592 0.6990001 165 149 158 
-0.06679513 0.01215698 0.326 83 77 81 
-0.06245873 0.01211969 0.325 118 95 92 
-0.05832722 0.01211969 0.325 124 96 95 
-0.04342014 0.01096366 0.294 189 194 203 
-0.03968272 0.01096366 0.294 37 46 67 
-0.03594529 0.01096366 0.294 35 47 65 
-0.03220787 0.01096366 0.294 32 47 64 
-0.02856728 0.01100095 0.295 33 48 65 
-0.02481715 0.01100095 0.295 35 50 67 
-0.02106701 0.01100095 0.295 36 51 68 
-0.01731687 0.01100095 0.295 39 54 71 
-0.01361272 0.01103824 0.296 41 56 73 
-0.009849875 0.01103824 0.296 42 57 74 
-0.006107591 0.01107553 0.297 45 60 77 
-0.00233203 0.01107553 0.297 49 67 90 
0.001443532 0.01107553 0.297 51 79 114 
0.005219093 0.01107553 0.297 58 90 124 
0.009024939 0.01111282 0.298 208 233 255 
0.01281321 0.01111282 0.298 89 162 209 
0.01660149 0.01111282 0.298 82 155 200 
0.02038976 0.01111282 0.298 150 214 255 
0.02417803 0.01111282 0.298 86 159 204 
0.02796631 0.01111282 0.298 55 133 185 
0.03175458 0.01111282 0.298 51 128 183 
0.03554286 0.01111282 0.298 56 125 185 
0.03933113 0.01111282 0.298 60 117 181 
0.0432641 0.01115011 0.299 54 105 164 
0.04722249 0.0111874 0.3 61 100 147 
0.05103619 0.0111874 0.3 62 93 132 
0.05484989 0.0111874 0.3 64 92 123 
0.05885914 0.0112247 0.301 65 91 120 
0.06268555 0.0112247 0.301 66 91 116 
0.06651196 0.0112247 0.301 73 93 117 
0.07057205 0.01126199 0.302 101 99 115 
0.2417221 0.03065349 0.822 251 233 222 
0.2533987 0.03080265 0.826 30 27 24 
0.2594263 0.03028058 0.812 11 11 11 
0.2624402 0.02946017 0.79 8 8 8 
0.2659296 0.02875163 0.771 4 7 6 
