ply
format ascii 1.0
element vertex 1240
property float32 x
property float32 y
property float32 z
property uchar red
property uchar green
property uchar blue
end_header
0.1233364 0.0986832 0.424 124 101 109 
0.1350654 0.09938142 0.427 112 84 95 
0.1462635 0.09961417 0.428 168 161 174 
0.3355858 0.2127275 0.914 184 194 222 
0.3627498 0.2150549 0.924 189 213 252 
0.3912583 0.2178478 0.936 205 241 251 
0.4234811 0.2222699 0.955 221 255 253 
0.4627652 0.2297177 0.987 188 213 236 
0.1006657 0.09959128 0.425 95 82 86 
0.110422 0.09865396 0.421 157 145 156 
0.1219889 0.09935695 0.424 123 103 106 
0.1337084 0.1000599 0.427 165 144 153 
0.1445647 0.1000599 0.427 162 155 166 
0.156513 0.1007629 0.43 182 175 188 
0.3590344 0.2160545 0.9220001 186 213 253 
0.3862095 0.2181635 0.9310001 200 234 254 
0.4182447 0.2226158 0.95 222 255 254 
0.4573 0.2301144 0.9820001 208 242 252 
0.09842529 0.1007385 0.427 76 64 62 
0.107746 0.09932294 0.421 140 128 139 
0.1192939 0.1000307 0.424 110 82 81 
0.1306875 0.1005026 0.426 164 148 155 
0.1418506 0.1007385 0.427 153 141 154 
0.1537798 0.1014462 0.43 172 162 174 
0.3512588 0.21634 0.9170001 185 212 252 
0.378658 0.2186992 0.927 193 223 253 
0.4100369 0.2229458 0.9450001 219 255 255 
0.4455463 0.2288438 0.97 219 255 253 
0.09479611 0.101892 0.429 30 27 24 
0.1042249 0.1004669 0.423 115 104 112 
0.1149795 0.1004669 0.423 85 56 60 
0.1263287 0.100942 0.425 137 114 122 
0.1377795 0.101417 0.427 130 112 118 
0.149332 0.101892 0.429 181 176 188 
0.3399013 0.2161346 0.91 179 202 250 
0.368224 0.2192222 0.923 188 216 251 
0.3963589 0.2218348 0.934 208 241 254 
0.4286516 0.2263475 0.9530001 219 255 253 
0.467613 0.2337103 0.984 203 233 252 
0.09954865 0.1018564 0.426 90 78 78 
0.109084 0.1006609 0.421 153 141 152 
0.1209259 0.1016173 0.425 117 95 97 
0.1320414 0.1018564 0.426 155 142 148 
0.1428723 0.1018564 0.426 156 149 160 
0.1551464 0.1028128 0.43 180 168 181 
0.3541731 0.2192543 0.9170001 185 212 250 
0.3803691 0.220928 0.924 198 229 254 
0.4108548 0.2247536 0.9400001 217 254 255 
0.4486291 0.2319266 0.97 212 253 250 
0.09386829 0.1037368 0.431 29 26 23 
0.1028806 0.1018113 0.423 109 98 104 
0.1136352 0.1018113 0.423 81 56 66 
0.1252721 0.1025333 0.426 118 97 104 
0.1364224 0.102774 0.427 119 99 100 
0.1472788 0.102774 0.427 175 167 183 
0.3351575 0.2178232 0.905 174 195 226 
0.3644991 0.2216742 0.9210001 187 214 252 
0.3904423 0.2231183 0.927 204 236 255 
0.4207102 0.2267286 0.942 207 243 251 
0.4616536 0.2353934 0.978 215 255 255 
0.09638365 0.1041794 0.43 59 48 43 
0.1053197 0.1022412 0.422 131 120 128 
0.1168739 0.102968 0.425 87 56 54 
0.1279798 0.1032103 0.426 143 123 126 
0.1388107 0.1032103 0.426 140 127 133 
0.1506954 0.1039371 0.429 185 180 192 
0.3416632 0.2197458 0.9070001 183 210 252 
0.369951 0.2228954 0.92 190 220 254 
0.396762 0.2248336 0.928 200 232 252 
0.4285096 0.2291946 0.946 213 250 253 
0.4697835 0.2379166 0.9820001 204 243 250 
0.09545901 0.1053504 0.432 46 37 32 
0.1039785 0.1029117 0.422 121 112 119 
0.1155232 0.1036433 0.425 81 53 54 
0.1269231 0.1041311 0.427 120 98 102 
0.1374568 0.1038872 0.426 127 114 118 
0.1489839 0.1043749 0.428 179 173 188 
0.3376602 0.2204555 0.904 178 202 243 
0.3658303 0.2236257 0.9170001 190 220 254 
0.3916909 0.2250889 0.923 202 234 254 
0.4223545 0.2289908 0.9390001 209 245 255 
0.4633361 0.23777 0.975 216 255 254 
0.09430388 0.1062823 0.433 36 32 25 
0.1026374 0.1035823 0.422 116 105 113 
0.1139039 0.1040732 0.424 80 52 61 
0.1255661 0.1048096 0.427 102 82 85 
0.1364224 0.1048096 0.427 115 100 101 
0.1472788 0.1048096 0.427 176 169 182 
0.3336762 0.2211556 0.901 175 196 225 
0.3617287 0.2243465 0.914 189 219 251 
0.3870728 0.2255738 0.919 201 231 254 
0.4153508 0.2282738 0.9300001 202 235 250 
0.4564612 0.2373557 0.9670001 219 255 255 
0.09197453 0.1074645 0.435 35 39 34 
0.1001919 0.1044999 0.423 102 89 93 
0.110422 0.1040058 0.421 168 154 165 
0.122852 0.1054881 0.427 102 85 85 
0.1337084 0.1054881 0.427 90 63 68 
0.1438876 0.104994 0.425 168 158 172 
0.156877 0.1064763 0.431 171 164 175 
0.3539721 0.2245637 0.909 193 223 253 
0.3787425 0.2255519 0.913 195 223 254 
0.406798 0.2282694 0.924 198 232 250 
0.4447266 0.2359277 0.955 212 249 252 
0.4886514 0.2458095 0.9950001 200 230 253 
0.09842529 0.1061666 0.427 81 69 69 
0.107746 0.1046748 0.421 154 143 151 
0.1204193 0.1064153 0.428 93 70 69 
0.1309943 0.1061666 0.427 117 104 112 
0.1411862 0.1056694 0.425 152 140 151 
0.1534222 0.1066639 0.429 167 153 166 
0.3458961 0.2245163 0.9030001 198 231 255 
0.3717139 0.2262568 0.91 188 216 251 
0.3991893 0.2287431 0.92 202 234 252 
0.4322259 0.2339644 0.941 218 255 254 
0.4794185 0.2458988 0.989 206 239 252 
0.09590095 0.1085967 0.434 44 40 31 
0.1039785 0.105594 0.422 132 119 127 
0.115795 0.1065949 0.426 84 58 58 
0.1272204 0.1070954 0.428 112 92 93 
0.1374568 0.1065949 0.426 123 110 116 
0.1489839 0.1070954 0.428 177 172 184 
0.334672 0.2241997 0.896 186 208 250 
0.3618409 0.2269521 0.9070001 189 219 251 
0.3874472 0.2284535 0.913 201 231 254 
0.4174068 0.2322068 0.928 210 249 254 
0.4581087 0.2412148 0.964 220 255 255 
0.0923974 0.1100418 0.437 37 32 30 
0.1001919 0.1065164 0.423 102 89 95 
0.1106843 0.1062646 0.422 166 154 165 
0.1231397 0.1077755 0.428 95 78 78 
0.1340215 0.1077755 0.428 86 62 64 
0.1438876 0.10702 0.425 166 159 172 
0.3250374 0.224868 0.8930001 170 160 172 
0.3508568 0.2268825 0.901 192 225 250 
0.3758386 0.2281415 0.906 194 224 254 
0.4041565 0.2311633 0.918 197 231 251 
0.4405354 0.238214 0.946 211 248 251 
0.4857047 0.2490419 0.989 199 231 251 
0.09612193 0.1102294 0.435 45 38 32 
0.1039785 0.1069352 0.422 133 120 128 
0.1160668 0.1082022 0.427 86 60 60 
0.1272204 0.1084556 0.428 108 91 93 
0.1374568 0.1079488 0.426 119 101 109 
0.1489839 0.1084556 0.428 178 171 184 
0.333178 0.2260336 0.892 187 209 253 
0.3598462 0.2285676 0.9020001 192 220 251 
0.3853254 0.2300881 0.9080001 201 233 255 
0.4156077 0.2341425 0.924 211 250 255 
0.4557326 0.2430115 0.9590001 219 255 255 
0.09002992 0.1119406 0.439 54 47 58 
0.09842529 0.1088807 0.427 80 65 66 
0.108002 0.1076058 0.422 159 147 158 
0.1207007 0.1093907 0.429 90 71 69 
0.131301 0.1091357 0.428 64 46 56 
0.1411862 0.1083707 0.425 149 136 144 
0.1534222 0.1093907 0.429 163 146 160 
0.3424486 0.227961 0.8940001 199 230 255 
0.3684461 0.230001 0.9020001 187 217 251 
0.3948503 0.2320409 0.91 197 229 251 
0.4290105 0.2381606 0.934 215 255 253 
0.474571 0.2496352 0.979 211 245 251 
0.09400084 0.1123816 0.438 30 25 21 
0.1012962 0.1082763 0.422 112 99 105 
0.1125564 0.1087895 0.424 142 123 136 
0.1247908 0.1100724 0.429 102 87 88 
0.1353817 0.1098158 0.428 95 75 76 
0.14558 0.1093027 0.426 171 164 177 
0.1593482 0.1113553 0.434 174 183 204 
0.3517574 0.2298948 0.896 193 224 251 
0.377046 0.2314343 0.9020001 193 223 253 
0.4053002 0.2345132 0.914 204 239 254 
0.443073 0.2424672 0.9450001 208 248 250 
0.4863764 0.2524737 0.984 211 244 255 
0.09612193 0.1123031 0.435 40 35 31 
0.1039785 0.1089469 0.422 132 119 127 
0.1160668 0.1102378 0.427 85 62 61 
0.1275176 0.1107541 0.429 110 99 103 
0.1377795 0.1102378 0.427 112 97 98 
0.1489839 0.1104959 0.428 176 169 182 
0.3301898 0.2282206 0.8840001 185 209 252 
0.3574525 0.2313186 0.896 191 219 252 
0.3827792 0.2328676 0.9020001 202 234 255 
0.4129089 0.2369983 0.918 211 250 255 
0.4533565 0.2462923 0.9540001 219 255 255 
0.1047853 0.2410546 0.928 28 40 46 
0.09378622 0.1135138 0.437 28 23 19 
0.1012962 0.1096175 0.422 113 100 106 
0.1125564 0.110137 0.424 88 67 78 
0.1247908 0.1114358 0.429 108 92 97 
0.1353817 0.111176 0.428 91 70 69 
0.14558 0.1106565 0.426 165 153 166 
0.3231023 0.2285862 0.8800001 175 184 205 
0.3497944 0.2314436 0.891 198 230 252 
0.3753739 0.2332619 0.8980001 192 222 252 
0.4035265 0.2363789 0.91 210 246 255 
0.4411976 0.2444314 0.941 205 244 249 
0.4848936 0.2548217 0.9810001 209 243 253 
0.09121684 0.1144696 0.438 32 29 24 
0.09908129 0.1108108 0.424 85 73 73 
0.1093431 0.1102881 0.422 162 151 159 
0.122064 0.1121175 0.429 99 84 85 
0.1332812 0.1123788 0.43 62 41 40 
0.1428723 0.1113334 0.426 149 137 148 
0.1555072 0.1126402 0.431 152 140 153 
0.3422 0.2315527 0.886 203 233 255 
0.3680194 0.2336434 0.8940001 186 216 250 
0.3951199 0.2362569 0.904 202 236 254 
0.4301289 0.2430519 0.9300001 210 250 250 
0.4752427 0.2545511 0.974 207 243 251 
0.1091333 0.2405857 0.915 94 114 129 
0.09567998 0.1138509 0.433 35 27 24 
0.1039785 0.1109586 0.422 126 113 119 
0.1160668 0.1122733 0.427 84 61 60 
0.1278149 0.1130621 0.43 108 99 104 
0.1377795 0.1122733 0.427 98 86 84 
0.149332 0.1127992 0.429 170 163 174 
0.3275752 0.2305941 0.877 188 210 252 
0.3554578 0.2342752 0.891 191 219 252 
0.3806573 0.2358528 0.897 202 234 255 
0.4102102 0.2397969 0.9120001 210 249 254 
0.45003 0.2489996 0.947 215 255 254 
0.1027229 0.2550013 0.964 24 36 40 
0.0923974 0.1155971 0.437 26 23 18 
0.1004288 0.1121583 0.424 94 79 80 
0.1112088 0.1121583 0.424 161 145 152 
0.1237152 0.1137454 0.43 104 91 95 
0.1346478 0.1137454 0.43 68 47 44 
0.1445647 0.1129518 0.427 152 138 151 
0.1572409 0.1142745 0.432 162 156 171 
0.3442369 0.2338394 0.8840001 206 241 255 
0.3696162 0.2356911 0.891 191 221 253 
0.3971124 0.2386008 0.9020001 213 249 255 
0.4330845 0.2460075 0.9300001 207 246 251 
0.4763737 0.2565885 0.97 203 238 251 
0.1105718 0.2403003 0.9030001 92 112 127 
0.0975229 0.1141626 0.429 45 35 33 
0.1069136 0.1125659 0.423 143 127 136 
0.1196154 0.1144287 0.43 91 72 70 
0.1308516 0.1146948 0.431 42 26 33 
0.1404936 0.1136304 0.427 118 105 109 
0.1524132 0.1144287 0.43 132 118 131 
0.3323898 0.2328491 0.8750001 194 222 253 
0.3594999 0.2360425 0.887 185 215 249 
0.3867896 0.2389697 0.8980001 198 230 252 
0.4187439 0.244292 0.918 215 255 255 
0.4589388 0.253606 0.9530001 219 255 255 
0.1038819 0.2462861 0.92 78 96 105 
0.09452167 0.1161828 0.434 25 22 17 
0.1028806 0.1132381 0.423 111 95 100 
0.1149784 0.1145766 0.428 76 54 56 
0.1270364 0.1156474 0.432 104 95 100 
0.1370614 0.1148443 0.429 74 57 59 
0.1479686 0.1148443 0.429 159 147 160 
0.3218253 0.2326333 0.869 182 204 244 
0.34946 0.2363811 0.883 197 229 251 
0.3752795 0.2385227 0.891 198 229 254 
0.4037389 0.2420029 0.904 208 247 252 
0.4404118 0.2497662 0.933 208 247 254 
0.4810468 0.2588681 0.9670001 216 250 255 
0.1161456 0.2369764 0.8800001 61 70 80 
0.0986558 0.1152567 0.428 47 35 33 
0.1087698 0.1144488 0.425 140 127 131 
0.1212634 0.1160646 0.431 93 76 76 
0.1325282 0.1163338 0.432 42 26 23 
0.1418506 0.1149874 0.427 107 95 95 
0.1541374 0.1160646 0.431 141 124 136 
0.3340214 0.234822 0.872 207 240 255 
0.360685 0.2377842 0.883 186 213 251 
0.3892096 0.2415543 0.897 205 237 255 
0.421202 0.2469402 0.9170001 214 254 254 
0.4605132 0.2558268 0.95 217 255 255 
0.1075827 0.2443341 0.9020001 104 121 137 
0.09545901 0.1170203 0.432 26 21 17 
0.1047177 0.1151242 0.425 107 90 92 
0.1168823 0.1164786 0.43 79 57 59 
0.1287066 0.1172912 0.433 86 77 82 
0.1384248 0.1162077 0.429 76 61 62 
0.1496801 0.1164786 0.43 152 142 154 
0.3234665 0.2345824 0.8660001 192 217 253 
0.3514684 0.2386456 0.881 196 230 250 
0.3776868 0.2410835 0.89 197 230 255 
0.4066118 0.2448759 0.904 205 244 253 
0.4429018 0.2524605 0.932 211 250 255 
0.1031741 0.2719245 0.998 17 29 31 
0.1157497 0.2389557 0.877 61 70 80 
0.1011394 0.1163444 0.427 61 46 47 
0.1125203 0.1168894 0.429 78 57 64 
0.1245783 0.1179793 0.433 97 88 91 
0.135274 0.1177068 0.432 58 39 35 
0.1452418 0.1168894 0.429 123 101 115 
0.1572409 0.1177068 0.432 165 162 178 
0.3403428 0.2381383 0.874 210 246 254 
0.3654678 0.2400455 0.881 193 223 253 
0.3953513 0.2446775 0.8980001 211 251 253 
0.427962 0.2503994 0.919 208 248 250 
0.4670427 0.2591184 0.951 210 250 250 
0.111306 0.2428158 0.886 88 103 118 
0.0988863 0.1175711 0.429 37 29 26 
0.1095376 0.117297 0.428 116 103 107 
0.1218261 0.1186673 0.433 92 75 77 
0.1331417 0.1189414 0.434 41 30 25 
0.142515 0.1175711 0.429 83 70 74 
0.1544951 0.1183932 0.432 144 130 141 
0.3324893 0.2378827 0.868 209 245 255 
0.3586426 0.2406233 0.878 184 213 250 
0.3879079 0.2450082 0.8940001 203 238 253 
0.4175274 0.2491191 0.909 215 255 255 
0.4542114 0.2567928 0.937 217 255 255 
0.1072249 0.2478071 0.899 103 122 140 
0.09683195 0.1190797 0.432 25 22 17 
0.1070667 0.1182528 0.429 91 75 80 
0.1190738 0.1193554 0.433 79 62 64 
0.1306836 0.1199067 0.435 39 28 34 
0.1401141 0.1185284 0.43 74 62 62 
0.1513979 0.1188041 0.431 136 126 136 
0.3247119 0.2376081 0.862 195 224 252 
0.3526598 0.2417429 0.877 193 224 249 
0.3796602 0.244775 0.8880001 199 233 255 
0.4085789 0.2486341 0.9020001 202 240 252 
0.4439502 0.2558009 0.928 213 255 254 
0.1032045 0.2533942 0.914 93 113 126 
0.09452167 0.1203207 0.434 22 19 14 
0.1045831 0.1192117 0.43 69 53 58 
0.1163216 0.1200434 0.433 67 50 52 
0.1282127 0.1208751 0.436 83 77 81 
0.1377004 0.1194889 0.431 58 43 42 
0.1486584 0.1194889 0.431 126 114 127 
0.3181219 0.2381462 0.859 190 218 251 
0.3458981 0.2423047 0.874 200 238 250 
0.3706464 0.2439682 0.8800001 201 233 255 
0.4015058 0.2492356 0.899 202 241 250 
0.4342753 0.2550576 0.92 204 243 250 
0.4720924 0.2630975 0.9490001 205 241 249 
0.1127049 0.2439724 0.8750001 78 88 102 
0.09957781 0.1204526 0.432 34 29 25 
0.1105613 0.1204526 0.432 85 72 78 
0.1226701 0.1215679 0.436 88 75 79 
0.1334485 0.1212891 0.435 41 32 27 
0.1428472 0.119895 0.43 79 63 68 
0.1548527 0.1207315 0.433 145 131 142 
0.3317232 0.2414629 0.8660001 209 245 255 
0.3574172 0.2439724 0.8750001 183 215 249 
0.3857384 0.2478759 0.8890001 202 236 254 
0.4156901 0.2523371 0.905 212 252 254 
0.4508182 0.2593078 0.9300001 216 255 254 
0.1056449 0.2551773 0.91 103 122 140 
0.09495725 0.1222608 0.436 23 20 15 
0.1050695 0.1211391 0.432 66 53 57 
0.1171276 0.1222608 0.436 66 49 51 
0.1285068 0.1225412 0.437 79 73 77 
0.1380199 0.1211391 0.432 57 45 43 
0.1490033 0.1211391 0.432 126 114 125 
0.3173812 0.2403153 0.8570001 195 223 254 
0.3455024 0.244802 0.873 203 242 251 
0.369804 0.246204 0.878 192 225 250 
0.4001659 0.2512515 0.896 201 239 251 
0.4328592 0.2571402 0.9170001 204 243 248 
0.4681127 0.2638701 0.941 210 247 250 
0.1137699 0.2430872 0.862 64 73 85 
0.09980832 0.1221076 0.433 33 30 25 
0.1110731 0.1223896 0.434 74 63 71 
0.1229515 0.1232356 0.437 86 74 74 
0.1337553 0.1229536 0.436 43 33 31 
0.1431794 0.1215436 0.431 86 73 77 
0.1552103 0.1223896 0.434 140 127 135 
0.3317232 0.2442152 0.8660001 209 245 255 
0.3566002 0.2461892 0.873 183 215 249 
0.3844367 0.2498552 0.886 197 231 251 
0.4143121 0.2543673 0.9020001 211 251 253 
0.4483944 0.2608534 0.9250001 215 255 253 
0.1081791 0.2572186 0.9070001 100 121 138 
0.09517504 0.12393 0.437 23 20 15 
0.105556 0.1230792 0.434 69 58 62 
0.1176648 0.1242136 0.438 65 50 51 
0.1288008 0.1242136 0.438 78 72 76 
0.1380199 0.122512 0.432 59 49 47 
0.1493483 0.1227956 0.433 135 126 133 
0.3170109 0.2427554 0.8560001 197 223 252 
0.3451066 0.2472928 0.872 205 244 251 
0.3693829 0.2487108 0.877 189 225 251 
0.3992727 0.2535319 0.8940001 197 231 249 
0.4309711 0.2589202 0.913 202 243 249 
0.4646305 0.2648756 0.934 209 249 251 
0.1123185 0.2486785 0.872 82 97 114 
0.1004998 0.1243392 0.436 33 30 25 
0.1118409 0.1246244 0.437 73 62 70 
0.1232328 0.1249096 0.438 84 74 74 
0.1340621 0.1246244 0.437 46 34 32 
0.1435116 0.1231985 0.432 92 79 83 
0.155568 0.1240541 0.435 141 127 138 
0.3317232 0.2469674 0.8660001 207 242 255 
0.3561918 0.2486785 0.872 181 212 251 
0.383135 0.2518155 0.883 197 231 249 
0.4129342 0.2563784 0.899 211 250 255 
0.4459707 0.2623672 0.92 215 255 253 
0.1064575 0.2629688 0.9170001 103 123 145 
0.0993415 0.1253188 0.437 29 26 21 
0.1104521 0.1253188 0.437 79 70 77 
0.122119 0.1258924 0.439 82 66 71 
0.1329768 0.1256056 0.438 38 28 26 
0.1421387 0.123885 0.432 81 71 71 
0.1545399 0.1250321 0.436 131 118 126 
0.3282112 0.2477699 0.864 203 238 253 
0.3530152 0.2497773 0.8710001 190 220 252 
0.3786058 0.2520715 0.8790001 202 236 254 
0.4087086 0.2569466 0.896 200 234 252 
0.440639 0.2623953 0.915 214 255 255 
0.1041078 0.2658678 0.9220001 109 130 149 
0.1021191 0.1260132 0.437 40 37 34 
0.114007 0.1268783 0.44 66 55 61 
0.1249094 0.12659 0.439 90 81 84 
0.1351409 0.1257249 0.436 46 36 34 
0.1455553 0.1251482 0.434 109 98 104 
0.157672 0.1260132 0.437 155 141 152 
0.3348616 0.250008 0.867 210 246 254 
0.3585514 0.2511614 0.8710001 180 209 250 
0.3855041 0.2543334 0.882 209 248 255 
0.4157912 0.2592355 0.899 216 255 255 
0.4469428 0.2641376 0.9160001 211 253 252 
0.1042207 0.2676228 0.923 114 133 153 
0.09979616 0.1272876 0.439 30 27 22 
0.1109576 0.1272876 0.439 80 69 75 
0.1223972 0.1275775 0.44 82 70 70 
0.1329768 0.1269976 0.438 39 29 27 
0.1424677 0.1255479 0.433 88 77 81 
0.1548944 0.1267076 0.437 132 119 127 
0.3274514 0.2499359 0.862 204 239 254 
0.3522046 0.2519656 0.869 189 219 251 
0.3777444 0.2542852 0.877 203 241 255 
0.4077963 0.2592143 0.8940001 200 234 252 
0.4382311 0.2638535 0.91 214 255 255 
0.09856708 0.2696726 0.9250001 105 121 140 
0.09811065 0.1294428 0.444 28 25 20 
0.1084136 0.1282767 0.44 79 70 73 
0.1196005 0.1282767 0.44 66 56 56 
0.1307873 0.1282767 0.44 38 27 33 
0.1400382 0.1265274 0.434 68 57 61 
0.1521167 0.1274021 0.437 123 111 122 
0.3197313 0.2495565 0.8560001 201 233 253 
0.3462821 0.2530549 0.868 200 240 251 
0.3708969 0.2548041 0.874 195 232 253 
0.3994152 0.2588857 0.8880001 196 227 252 
0.4295957 0.2635503 0.904 201 239 251 
0.0969713 0.2749531 0.938 67 82 97 
0.09327848 0.1354246 0.462 23 23 19 
0.1056169 0.1289759 0.44 69 63 65 
0.1170692 0.129269 0.441 61 50 54 
0.1282815 0.129269 0.441 86 80 84 
0.1379122 0.1278034 0.436 54 43 47 
0.1493391 0.1280965 0.437 125 119 125 
0.3124546 0.249451 0.851 174 179 199 
0.3399798 0.253848 0.8660001 209 250 254 
0.3636696 0.2550205 0.8700001 192 222 254 
0.3911103 0.258538 0.882 210 249 254 
0.4210366 0.263228 0.8980001 212 252 252 
0.4502936 0.2670387 0.9110001 216 255 254 
0.09053747 0.1364535 0.463 12 20 39 
0.1007055 0.1305592 0.443 39 36 31 
0.1119686 0.1305592 0.443 79 70 73 
0.1226754 0.1299697 0.441 83 72 76 
0.1332804 0.1293803 0.439 41 31 29 
0.1434548 0.1284962 0.436 90 79 83 
0.1556033 0.1293803 0.439 135 126 133 
0.3263118 0.253161 0.859 205 240 255 
0.3505834 0.2549293 0.8650001 185 214 251 
0.3768829 0.2578765 0.8750001 206 246 255 
0.4046033 0.2614131 0.887 197 231 253 
0.4353417 0.2664233 0.904 210 251 255 
0.1010679 0.2728969 0.9210001 120 138 161 
0.09579851 0.1363003 0.46 26 23 18 
0.1032876 0.1309668 0.442 58 52 56 
0.1147844 0.1312631 0.443 65 56 61 
0.1254784 0.1306705 0.441 92 88 93 
0.1360708 0.1300779 0.439 45 35 33 
0.1465614 0.1294853 0.437 113 107 113 
0.1587545 0.1303742 0.44 157 147 159 
0.3325442 0.2551186 0.8610001 210 249 254 
0.3556698 0.2560075 0.864 179 207 251 
0.3833187 0.2598595 0.877 204 243 252 
0.4111662 0.2634152 0.8890001 211 253 254 
0.4410877 0.2678597 0.904 214 255 255 
0.1065736 0.2734668 0.918 114 136 160 
0.09722004 0.134946 0.453 29 26 21 
0.1065771 0.132265 0.444 77 71 73 
0.1176002 0.1319671 0.443 64 55 60 
0.1282815 0.1313713 0.441 86 82 87 
0.1385448 0.1304776 0.438 53 43 41 
0.1503643 0.1310734 0.44 124 113 121 
0.3113531 0.2526142 0.848 167 172 190 
0.3380169 0.2564868 0.8610001 209 251 252 
0.3619975 0.2579763 0.8660001 191 221 253 
0.3893365 0.261551 0.878 208 249 255 
0.4186923 0.2660194 0.8930001 211 253 252 
0.4473279 0.2695941 0.905 216 255 254 
0.09073301 0.1389602 0.464 155 175 199 
0.09943647 0.1347674 0.45 37 34 29 
0.1096456 0.13327 0.445 76 70 72 
0.1201441 0.1323715 0.442 73 62 66 
0.1313818 0.1323715 0.442 38 27 31 
0.1413288 0.1311736 0.438 70 57 61 
0.1545534 0.1329705 0.444 128 119 126 
0.3174902 0.2545606 0.85 198 229 254 
0.3434896 0.257855 0.8610001 193 224 249 
0.367502 0.2593524 0.8660001 204 244 255 
0.395367 0.2632456 0.8790001 191 224 249 
0.425794 0.2683369 0.896 201 239 251 
0.0948003 0.2760832 0.9170001 92 107 122 
0.09327848 0.1390953 0.462 23 23 23 
0.1018421 0.1348803 0.448 52 47 45 
0.1124741 0.1339771 0.445 70 64 68 
0.1229535 0.1330739 0.442 88 82 86 
0.1338876 0.1327728 0.441 44 34 32 
0.1447709 0.1324718 0.44 97 86 92 
0.1584389 0.1345793 0.447 139 130 137 
0.3244124 0.2571156 0.854 205 240 253 
0.3485569 0.258922 0.86 183 212 251 
0.3738679 0.2613306 0.868 204 245 251 
0.4014103 0.2649435 0.8800001 190 222 252 
0.4324523 0.2703628 0.8980001 204 245 251 
0.1002997 0.2766323 0.914 120 140 162 
0.09600677 0.1395268 0.461 29 26 23 
0.1046897 0.1355922 0.448 74 71 68 
0.1153026 0.1346842 0.445 62 56 60 
0.125763 0.1337762 0.442 97 93 98 
0.1366907 0.1334736 0.441 45 35 33 
0.1485737 0.1340789 0.443 126 120 124 
0.1612801 0.1352895 0.447 159 147 160 
0.3302268 0.2587753 0.855 211 250 255 
0.3531999 0.2596833 0.858 178 207 248 
0.3806963 0.2636179 0.8710001 198 236 250 
0.4079287 0.2669472 0.882 209 250 254 
0.438648 0.2720924 0.899 214 255 255 
0.1056449 0.2768677 0.91 121 143 167 
0.09704898 0.1396509 0.459 34 31 26 
0.1061134 0.1363041 0.448 78 74 75 
0.1167168 0.1353914 0.445 62 56 60 
0.1274554 0.1347829 0.443 95 89 95 
0.1384054 0.1344786 0.442 47 37 35 
0.1509973 0.1356956 0.446 128 119 124 
0.1637926 0.1369126 0.45 163 158 170 
0.3325547 0.2598297 0.854 205 244 253 
0.3559267 0.2610467 0.858 189 218 255 
0.3834644 0.265002 0.8710001 201 239 253 
0.4111974 0.2686529 0.883 215 255 255 
0.441014 0.2732167 0.8980001 211 253 252 
0.1082984 0.2777021 0.9080001 118 140 164 
0.0993131 0.1394627 0.456 47 39 36 
0.108961 0.137016 0.448 70 66 69 
0.1192767 0.1357926 0.444 72 61 65 
0.1302712 0.1354868 0.443 76 64 75 
0.1412148 0.135181 0.442 64 54 52 
0.1552118 0.1376277 0.45 131 122 129 
0.3114558 0.2572108 0.841 191 222 247 
0.3383786 0.2614926 0.855 195 228 253 
0.3613803 0.2624101 0.858 202 240 254 
0.3894472 0.2666919 0.872 210 251 255 
0.418226 0.2709736 0.886 208 250 251 
0.4462244 0.2743378 0.897 215 255 255 
0.1108167 0.2782226 0.905 108 128 150 
0.09953088 0.1404947 0.457 51 43 40 
0.1092042 0.1380353 0.449 67 63 66 
0.1192767 0.1364982 0.444 73 62 66 
0.1305652 0.1364982 0.444 79 67 78 
0.1415343 0.1361907 0.443 66 55 59 
0.1559016 0.1389576 0.452 130 124 130 
0.3110854 0.2582398 0.84 193 224 249 
0.3379828 0.2625438 0.854 194 228 250 
0.3609591 0.2634661 0.8570001 203 241 253 
0.388554 0.2674626 0.8700001 214 255 255 
0.417282 0.2717666 0.8840001 210 252 251 
0.4457269 0.2754558 0.896 215 255 255 
0.1105718 0.2790427 0.9030001 114 134 156 
0.09974868 0.1415299 0.458 52 44 43 
0.1094474 0.1390578 0.45 63 59 62 
0.1195453 0.1375127 0.445 74 63 67 
0.1305652 0.1372037 0.444 82 71 79 
0.1418538 0.1372037 0.444 69 58 62 
0.1559016 0.1396758 0.452 130 124 130 
0.3107151 0.2592655 0.839 196 228 250 
0.3371913 0.2632828 0.8520001 194 228 250 
0.3605379 0.2645189 0.8560001 204 242 254 
0.3881074 0.2685361 0.869 211 253 254 
0.4163379 0.2725533 0.882 210 252 251 
0.444732 0.2762615 0.8940001 213 255 254 
0.1075827 0.280167 0.9020001 121 143 169 
0.09893696 0.1431895 0.461 43 38 36 
0.1082573 0.1400835 0.451 61 57 58 
0.1183965 0.1385304 0.446 68 59 62 
0.129445 0.1382198 0.445 94 88 94 
0.1404427 0.1379092 0.444 57 46 50 
0.1544651 0.1403941 0.452 133 127 133 
0.3069472 0.2596669 0.836 188 206 231 
0.3333058 0.2637048 0.849 196 230 250 
0.3569814 0.2652579 0.854 202 236 255 
0.3840153 0.2689852 0.8660001 205 244 253 
0.4121283 0.273023 0.8790001 215 255 255 
0.4413965 0.2773715 0.8930001 214 255 253 
0.1018495 0.2816003 0.9020001 118 140 164 
0.09810616 0.1448587 0.464 33 33 29 
0.1072977 0.1414245 0.453 55 54 54 
0.1169791 0.1392392 0.446 64 58 60 
0.1280308 0.138927 0.445 101 94 103 
0.1390316 0.1386148 0.444 54 44 44 
0.1530287 0.1411123 0.452 135 126 133 
0.1648846 0.1414245 0.453 156 156 176 
0.3286606 0.2634929 0.844 195 232 251 
0.3538525 0.2663027 0.853 188 220 252 
0.3795021 0.2691125 0.862 202 242 255 
0.407472 0.273171 0.8750001 211 250 255 
0.4370852 0.2778539 0.89 215 255 254 
0.09898285 0.2830336 0.9020001 112 132 156 
0.0951569 0.145596 0.464 97 112 138 
0.1048794 0.1427719 0.455 62 57 55 
0.1146561 0.1405754 0.448 60 51 54 
0.1252023 0.1396341 0.445 115 103 114 
0.1365163 0.1396341 0.445 48 43 41 
0.1494913 0.141203 0.45 150 145 153 
0.1623629 0.1424582 0.454 148 143 153 
0.3213807 0.2632652 0.839 200 238 250 
0.3480222 0.2673444 0.8520001 178 209 248 
0.3718536 0.2689133 0.8570001 198 235 252 
0.400073 0.2733063 0.8710001 184 215 254 
0.4290044 0.2776993 0.8850001 210 251 255 
0.09622278 0.2847823 0.9030001 114 134 158 
0.09368227 0.1463333 0.464 174 198 228 
0.1036607 0.1438103 0.456 59 53 55 
0.1134851 0.1416027 0.449 58 49 52 
0.1240662 0.1406566 0.446 114 103 111 
0.1354056 0.1406566 0.446 54 48 50 
0.1480611 0.1419181 0.45 140 138 147 
0.1612745 0.1434949 0.455 141 134 143 
0.3175747 0.2636523 0.836 203 241 253 
0.3453145 0.2686982 0.8520001 182 213 250 
0.3678378 0.269329 0.854 195 232 249 
0.3959365 0.2737442 0.868 176 207 248 
0.4242655 0.2778441 0.881 207 246 255 
0.09345635 0.2865342 0.904 108 128 152 
0.1151522 0.2833645 0.8940001 98 114 133 
0.1026598 0.1451689 0.458 49 45 46 
0.1123077 0.1426332 0.45 50 44 46 
0.1226488 0.1413653 0.446 109 98 104 
0.1342886 0.1416823 0.447 65 56 61 
0.1463052 0.1423162 0.449 134 127 138 
0.1601797 0.1445349 0.456 133 128 136 
0.3141644 0.2643468 0.8340001 202 240 252 
0.3409983 0.2687843 0.848 187 219 251 
0.3642686 0.2700521 0.8520001 202 241 250 
0.392272 0.2744896 0.8660001 186 221 250 
0.4195521 0.2779762 0.877 203 242 251 
0.09068356 0.2882892 0.905 94 114 136 
0.112311 0.2847852 0.8940001 121 141 163 
0.103888 0.1455781 0.457 46 42 43 
0.1134851 0.1430297 0.449 52 43 46 
0.1243444 0.1423926 0.447 117 107 117 
0.1360128 0.1427111 0.448 60 51 54 
0.1483902 0.1436668 0.451 146 141 151 
0.1616289 0.1452595 0.456 142 135 144 
0.3164351 0.2653535 0.8330001 201 238 255 
0.3440986 0.2704503 0.849 183 215 249 
0.367407 0.2717245 0.853 197 237 250 
0.3950242 0.2758657 0.8660001 175 205 249 
0.4218577 0.2790512 0.876 205 244 251 
-0.03003833 0.3195004 0.998 34 55 72 
0.101172 0.286846 0.896 113 135 159 
0.09725631 0.1495057 0.467 17 22 42 
0.1123077 0.1440633 0.45 42 36 38 
0.1229238 0.1431029 0.447 113 104 111 
0.134589 0.143423 0.448 70 61 66 
0.146631 0.1440633 0.45 139 132 141 
0.160531 0.1463043 0.457 128 123 133 
0.3130343 0.2660369 0.831 198 232 250 
0.340194 0.270839 0.846 185 217 249 
0.3642686 0.2727598 0.8520001 200 241 249 
0.391366 0.2766015 0.864 194 230 254 
0.4176385 0.2794828 0.873 205 244 249 
-0.03638178 0.3210862 0.998 34 55 72 
0.09008235 0.289235 0.899 99 118 138 
0.1118085 0.2863394 0.89 121 141 163 
0.111124 0.1451001 0.451 34 33 33 
0.1215032 0.1438132 0.447 105 94 98 
0.1334625 0.1444566 0.449 81 71 81 
0.1452008 0.1447784 0.45 128 123 131 
0.1594267 0.1473522 0.458 118 111 122 
0.3096463 0.2667139 0.8290001 203 238 253 
0.3359096 0.2708964 0.8420001 190 222 254 
0.3607121 0.2734702 0.85 203 244 252 
0.386821 0.2766875 0.86 205 249 254 
0.4134384 0.2799048 0.8700001 210 250 252 
0.4365591 0.2805483 0.872 215 255 254 
-0.02048202 0.3220254 0.9960001 32 53 70 
0.1008332 0.2887236 0.8930001 117 139 163 
0.1211857 0.2832272 0.876 71 83 99 
0.1160799 0.1448468 0.448 57 45 43 
0.1274702 0.1448468 0.448 120 116 121 
0.1391703 0.1451701 0.449 67 56 60 
0.1522629 0.1467867 0.454 131 126 134 
0.2980254 0.2670613 0.826 128 137 158 
0.3213435 0.2690012 0.832 196 227 252 
0.34826 0.2735277 0.846 183 215 249 
0.373703 0.2764375 0.855 206 247 255 
0.4005286 0.279994 0.8660001 189 224 253 
0.4244981 0.2812873 0.8700001 212 252 254 
-0.03304367 0.3226334 0.993 33 52 70 
0.08978174 0.2911173 0.896 106 125 143 
0.111306 0.2878683 0.886 119 139 161 
0.111124 0.1465334 0.451 28 28 24 
0.121775 0.1455587 0.448 107 96 100 
0.1337598 0.1462085 0.45 80 70 80 
0.1455235 0.1465334 0.451 132 125 134 
0.1597748 0.1491327 0.459 104 92 105 
0.3085258 0.2683738 0.826 199 233 251 
0.3347128 0.2725976 0.839 189 221 251 
0.3607121 0.2761716 0.85 202 243 251 
0.386821 0.2794207 0.86 200 244 251 
0.4115375 0.2813701 0.8660001 210 250 250 
0.4350571 0.2823448 0.869 216 255 254 
-0.02042033 0.3242113 0.993 32 53 70 
0.09494407 0.2909086 0.891 114 136 158 
0.1162776 0.2876437 0.881 102 122 144 
0.1137378 0.1469236 0.45 32 29 26 
0.1246226 0.1462706 0.448 122 113 120 
0.13662 0.1469236 0.45 65 56 61 
0.1490482 0.147903 0.453 136 129 138 
0.1630467 0.1501885 0.46 114 112 126 
0.3141558 0.2700129 0.827 190 222 252 
0.3408562 0.2745838 0.841 185 217 251 
0.3669763 0.2781753 0.8520001 201 245 252 
0.3931996 0.2814402 0.862 171 201 245 
0.417042 0.2827462 0.8660001 207 246 251 
-0.0394346 0.3264454 0.9950001 31 52 69 
-0.0141797 0.3274297 0.998 35 54 72 
0.1028586 0.2906841 0.886 128 150 176 
0.1232621 0.2857628 0.8710001 74 84 98 
0.117766 0.1473106 0.449 61 46 47 
0.1291816 0.1473106 0.449 112 107 117 
0.1409104 0.1476386 0.45 93 82 86 
0.15506 0.1502633 0.458 95 85 99 
0.2995585 0.2700146 0.823 183 211 246 
0.3239877 0.2729674 0.832 197 230 255 
0.3497042 0.2765764 0.8430001 195 228 253 
0.3768605 0.2808415 0.8560001 203 244 252 
0.4009524 0.2824819 0.8610001 199 233 253 
0.4262808 0.2847785 0.868 215 255 255 
-0.03297712 0.3267078 0.9910001 32 53 70 
0.08918052 0.2934107 0.89 113 134 153 
0.1108034 0.2907732 0.882 110 130 154 
0.1125573 0.1486834 0.451 26 26 22 
0.1234738 0.148024 0.449 118 105 113 
0.1354903 0.1486834 0.451 66 55 61 
0.1472827 0.149013 0.452 134 127 136 
0.1622873 0.1523098 0.462 103 101 112 
0.3103975 0.2716521 0.8240001 190 222 252 
0.3369771 0.2762676 0.8380001 187 219 251 
0.3629859 0.279894 0.849 200 244 251 
0.3891012 0.2831907 0.859 197 236 254 
0.4123761 0.2841797 0.862 208 250 251 
-0.04589695 0.3306014 0.998 32 52 67 
-0.02042033 0.3289451 0.993 31 52 69 
0.09441127 0.2934998 0.886 122 147 170 
0.1157497 0.2905185 0.877 107 127 149 
0.1154239 0.1494 0.451 28 25 22 
0.1266091 0.1490688 0.45 124 119 127 
0.138357 0.1494 0.451 66 57 60 
0.1514845 0.1510563 0.456 115 108 121 
0.2939698 0.2722989 0.822 161 179 202 
0.3167841 0.2739553 0.827 190 220 252 
0.342712 0.2779304 0.839 184 216 250 
0.369684 0.2822369 0.8520001 205 249 255 
0.3945611 0.2845557 0.859 173 200 249 
0.4197941 0.2868746 0.8660001 206 247 251 
-0.0394346 0.3311887 0.9950001 31 53 67 
-0.0141797 0.3321873 0.998 33 52 70 
0.09689784 0.2939092 0.883 123 148 173 
0.117861 0.2902478 0.872 96 115 135 
0.1171163 0.1504495 0.452 34 29 27 
0.1280392 0.1497838 0.45 108 106 115 
0.1401002 0.1504495 0.452 80 69 73 
0.1536045 0.1524467 0.458 93 88 100 
0.2962214 0.2732723 0.821 188 212 251 
0.3201849 0.2759351 0.8290001 189 219 251 
0.3445551 0.2785979 0.837 190 222 254 
0.3732659 0.2842564 0.854 202 246 253 
0.3963661 0.285255 0.8570001 178 208 252 
0.4235222 0.2889164 0.868 211 251 253 
-0.0394346 0.3327698 0.9950001 32 52 67 
-0.0141797 0.3337731 0.998 35 54 72 
0.09149211 0.2959812 0.8850001 114 136 160 
0.1127049 0.2926368 0.8750001 117 142 165 
0.1156475 0.1775887 0.531 20 21 17 
0.1211572 0.1508334 0.451 75 60 61 
0.1329178 0.1511678 0.452 64 57 66 
0.1447292 0.1515022 0.453 120 114 120 
0.1596957 0.1548467 0.463 92 90 97 
0.304049 0.2745769 0.821 197 231 253 
0.3288803 0.2779213 0.831 194 227 252 
0.3537989 0.2809313 0.84 207 248 255 
0.3823014 0.2862824 0.8560001 192 229 250 
0.4040649 0.2862824 0.8560001 215 255 255 
0.4337878 0.2916334 0.872 214 255 253 
-0.02670508 0.3333428 0.992 31 52 69 
0.07748853 0.3340149 0.994 4 12 11 
0.09387848 0.2960434 0.881 126 148 172 
0.1148258 0.292347 0.8700001 106 131 154 
0.1154297 0.1780965 0.53 19 20 16 
0.1211572 0.15155 0.451 64 52 52 
0.1329178 0.151886 0.452 58 51 60 
0.1447292 0.1522221 0.453 116 110 116 
0.1607305 0.1565905 0.466 95 93 102 
0.304049 0.2758815 0.821 196 229 254 
0.3284845 0.2789058 0.83 195 228 253 
0.3533777 0.2819301 0.839 207 248 254 
0.3818548 0.2873065 0.855 192 228 252 
0.4040649 0.2876426 0.8560001 214 254 254 
0.4337878 0.2930191 0.872 214 255 253 
-0.02670508 0.3349191 0.992 31 52 69 
-0.001492796 0.3369448 0.998 32 53 70 
0.08342969 0.3001443 0.8890001 86 106 121 
0.104601 0.2960928 0.877 124 149 174 
0.1242938 0.2900157 0.859 84 99 112 
0.1161917 0.1532795 0.454 24 25 21 
0.1271718 0.1526043 0.452 80 75 85 
0.1392773 0.1532795 0.454 62 52 52 
0.1528133 0.1553052 0.46 94 93 104 
0.2928969 0.2765109 0.8190001 183 210 250 
0.315635 0.278199 0.8240001 187 219 253 
0.3406697 0.2815752 0.8340001 189 221 251 
0.3688162 0.2869771 0.85 201 245 250 
0.3922645 0.2883275 0.854 178 206 250 
0.4193094 0.2920414 0.8650001 209 248 253 
-0.04255399 0.3371738 0.994 30 50 65 
-0.01726449 0.3368347 0.993 31 52 69 
0.008022381 0.3385307 0.998 30 49 67 
0.08596393 0.3005393 0.886 95 114 132 
0.1071432 0.296808 0.8750001 122 147 172 
0.1265802 0.290363 0.8560001 84 99 112 
0.1167036 0.1546794 0.456 24 25 21 
0.1271718 0.1533225 0.452 70 65 75 
0.1392773 0.1540009 0.454 60 52 51 
0.1531455 0.1563754 0.461 91 90 101 
0.2928969 0.2778123 0.8190001 182 211 252 
0.315635 0.2795083 0.8240001 187 219 253 
0.3394442 0.2818828 0.831 190 222 252 
0.3683823 0.2879885 0.849 199 243 250 
0.3918051 0.2893454 0.853 182 211 252 
0.4188246 0.2930767 0.864 208 247 252 
-0.04251118 0.3384126 0.993 31 48 64 
-0.01724711 0.3380718 0.992 30 52 66 
0.008006305 0.339435 0.9960001 30 50 65 
0.08314814 0.3019472 0.886 98 120 134 
0.1043624 0.2981984 0.8750001 125 152 176 
0.123281 0.2903601 0.8520001 81 98 112 
0.1162653 0.1567672 0.46 25 26 22 
0.1260135 0.1543816 0.453 63 58 66 
0.138138 0.1550632 0.455 50 44 46 
0.1516804 0.157108 0.461 89 88 99 
0.2899396 0.2787729 0.818 169 197 230 
0.3122565 0.2801361 0.822 185 217 251 
0.3355873 0.2821809 0.8280001 189 221 251 
0.3639612 0.2879745 0.845 205 249 252 
0.3886381 0.2903601 0.8520001 187 219 253 
0.4141525 0.2930864 0.86 205 244 249 
-0.04887201 0.3403329 0.994 31 48 62 
-0.02350494 0.3389634 0.9900001 30 52 66 
0.001665471 0.3389634 0.9900001 30 52 66 
0.07507188 0.3297189 0.9630001 4 12 11 
0.09345224 0.3002736 0.877 129 156 178 
0.1137699 0.2951378 0.862 117 137 159 
0.111638 0.1807804 0.528 20 21 17 
0.1198642 0.156471 0.457 30 30 30 
0.1320587 0.1571557 0.459 48 46 53 
0.1427893 0.1561286 0.456 84 79 87 
0.1614926 0.1633187 0.477 89 88 97 
0.2981026 0.2804151 0.8190001 183 212 253 
0.3200936 0.2814423 0.822 194 227 254 
0.3459707 0.285551 0.8340001 199 233 253 
0.3750995 0.2917139 0.8520001 188 224 250 
0.3962956 0.2913715 0.851 183 214 253 
0.4252986 0.2965073 0.8660001 213 255 255 
-0.03919681 0.3401925 0.989 28 48 63 
-0.01402341 0.3395046 0.987 32 52 67 
0.01116046 0.3422564 0.9950001 26 46 61 
0.07769157 0.3054509 0.8880001 72 88 96 
0.09857494 0.3002913 0.873 135 157 181 
0.1180039 0.2934117 0.853 84 101 117 
0.1149941 0.1816195 0.528 18 19 15 
0.1213166 0.1571971 0.457 35 34 34 
0.1340993 0.158573 0.461 44 42 49 
0.1445548 0.1571971 0.457 81 83 91 
0.1643755 0.1654526 0.481 90 94 106 
0.3007055 0.2817166 0.8190001 185 214 253 
0.3223134 0.2824045 0.821 197 230 255 
0.3494572 0.2875641 0.836 204 242 255 
0.3769203 0.2923798 0.85 188 223 252 
0.3985313 0.2923798 0.85 198 232 254 
0.4280508 0.2978834 0.8660001 215 255 255 
-0.03919681 0.3417641 0.989 28 48 63 
-0.01399499 0.3403818 0.9850001 33 53 68 
0.01113802 0.3431464 0.993 26 46 61 
0.07520668 0.3082443 0.892 21 33 35 
0.09591021 0.3020241 0.874 149 174 195 
0.1154281 0.2951128 0.854 95 114 132 
0.111638 0.1824585 0.528 20 20 16 
0.1204847 0.1606879 0.465 27 27 27 
0.1334973 0.1603423 0.464 45 43 50 
0.1431024 0.1579233 0.457 77 76 85 
0.163524 0.166908 0.483 88 87 96 
0.2977386 0.2826724 0.818 182 213 254 
0.3193148 0.2833636 0.8200001 197 230 255 
0.3459707 0.2882015 0.8340001 200 237 255 
0.3737787 0.2933849 0.849 189 222 249 
0.3948986 0.2930394 0.848 181 212 251 
0.4233342 0.2978773 0.862 210 251 255 
-0.04229712 0.3429885 0.988 28 48 61 
-0.01710802 0.3415999 0.984 32 52 67 
0.007941997 0.3429885 0.988 29 49 64 
0.07133839 0.3311853 0.9540001 3 11 10 
0.0882787 0.305843 0.881 103 124 141 
0.1085422 0.2999413 0.864 128 148 172 
0.127488 0.2929983 0.844 81 96 109 
0.1182874 0.1624682 0.468 25 25 25 
0.1325917 0.1617739 0.466 46 44 51 
0.14165 0.1586495 0.457 71 70 77 
0.1623244 0.1680227 0.484 84 86 94 
0.2947781 0.2836251 0.817 176 206 252 
0.3163226 0.2843194 0.8190001 192 224 254 
0.3420852 0.2884853 0.831 197 230 255 
0.3697692 0.2936926 0.846 194 231 250 
0.3912785 0.2936926 0.846 173 207 247 
0.4191309 0.2982056 0.859 207 248 252 
-0.04872451 0.3456047 0.9910001 27 44 58 
-0.02340997 0.343861 0.9860001 30 50 63 
0.001650331 0.3421172 0.9810001 31 51 66 
0.06446101 0.3445584 0.988 5 13 14 
0.08033237 0.3089866 0.886 111 128 142 
0.1011172 0.3037555 0.8710001 131 153 179 
0.1197241 0.2950369 0.846 70 85 100 
0.1149941 0.1841365 0.528 18 19 13 
0.1215211 0.1635606 0.469 27 27 27 
0.1346481 0.1632119 0.468 44 43 47 
0.1434155 0.1597245 0.458 72 71 80 
0.1648782 0.169838 0.487 80 90 106 
0.2973746 0.2849233 0.817 183 214 255 
0.318536 0.2852721 0.818 195 231 255 
0.3455558 0.2905032 0.8330001 205 240 255 
0.3715774 0.2943394 0.844 187 222 251 
0.3939672 0.2950369 0.846 181 212 251 
0.4213697 0.2992218 0.858 209 250 254 
-0.04867535 0.3468291 0.9900001 26 43 55 
-0.02340997 0.3454278 0.9860001 30 50 63 
0.001648648 0.3433258 0.98 31 51 66 
0.06413478 0.3443768 0.983 4 12 13 
0.08033237 0.3103945 0.886 113 130 144 
0.1011172 0.3051395 0.8710001 129 154 179 
0.1195826 0.2960309 0.845 71 83 97 
0.1149941 0.1849755 0.528 18 19 13 
0.1246757 0.1772682 0.506 24 25 21 
0.1349358 0.1643059 0.469 45 44 48 
0.1448711 0.1604523 0.458 73 72 79 
0.2800711 0.2844699 0.812 171 197 224 
0.3021973 0.2858713 0.816 184 215 254 
0.3241311 0.2869223 0.8190001 195 228 253 
0.3525353 0.2932282 0.837 208 249 255 
0.3764954 0.2953302 0.8430001 184 221 253 
0.3998165 0.2967316 0.8470001 210 249 254 
0.4268233 0.3005852 0.858 212 255 255 
-0.04539108 0.3473465 0.987 26 43 55 
-0.02025582 0.3466426 0.9850001 31 51 64 
0.004772889 0.3455869 0.9820001 30 50 63 
0.06113486 0.3466426 0.9850001 5 13 14 
0.08042303 0.3121543 0.887 115 132 146 
0.1012333 0.3068755 0.872 130 155 180 
0.1194411 0.2970217 0.844 71 82 91 
0.1133161 0.1858145 0.528 17 18 14 
0.1224196 0.17948 0.5100001 23 24 20 
0.1310169 0.1696261 0.482 37 40 41 
0.1387452 0.1608281 0.457 59 61 67 
0.2687521 0.2847044 0.809 85 90 106 
0.2914664 0.286816 0.8150001 177 205 251 
0.3129536 0.2875198 0.817 187 222 255 
0.3374018 0.2906871 0.826 192 228 252 
0.3640433 0.2952621 0.839 192 229 250 
0.3872119 0.2966698 0.8430001 182 216 252 
0.4139771 0.3005409 0.854 207 248 252 
-0.06175558 0.3528035 0.998 4 15 15 
-0.03594432 0.3485614 0.9860001 25 42 54 
-0.01080943 0.3464403 0.98 33 53 66 
0.01427947 0.3506824 0.992 25 42 56 
0.07016063 0.3181595 0.9 5 13 12 
0.09169887 0.3135638 0.887 50 59 82 
0.1103864 0.3029585 0.8570001 105 125 147 
0.1074116 0.1880676 0.532 26 25 29 
0.1193462 0.185593 0.525 18 19 13 
0.1273864 0.1781693 0.504 25 25 25 
0.1324115 0.168271 0.476 43 43 47 
0.266181 0.28599 0.809 82 86 100 
0.2881673 0.287404 0.813 178 206 252 
0.3099772 0.2884646 0.816 182 216 252 
0.3331555 0.2905856 0.822 188 223 252 
0.3605154 0.2958883 0.837 203 238 253 
0.3836205 0.2973023 0.841 180 214 250 
0.4098184 0.3008374 0.851 206 248 249 
-0.06492732 0.3543893 0.998 4 12 13 
-0.03907791 0.3501281 0.9860001 15 28 39 
-0.01395237 0.3487078 0.9820001 31 51 64 
0.01108194 0.3508383 0.988 27 44 58 
0.06322137 0.3440914 0.969 4 12 13 
0.08342969 0.3156835 0.8890001 66 76 94 
0.1041239 0.3100019 0.873 139 157 182 
0.1219787 0.2993489 0.8430001 38 37 46 
0.1149941 0.1874925 0.528 18 19 15 
0.123554 0.1803906 0.508 23 24 20 
0.1318323 0.1722233 0.485 35 38 39 
0.2687521 0.2872755 0.809 156 182 198 
0.2907511 0.2886959 0.813 175 205 251 
0.3125705 0.2897612 0.816 186 221 254 
0.3365849 0.292602 0.8240001 194 230 254 
0.3627416 0.2968632 0.836 190 223 250 
0.3858339 0.2982836 0.84 183 214 251 
0.4134924 0.3028999 0.853 207 248 252 
-0.06809903 0.3559752 0.998 1 9 10 
-0.0422115 0.3516949 0.9860001 12 23 34 
-0.01710802 0.3509816 0.984 26 42 52 
0.007917881 0.3513383 0.9850001 31 48 62 
0.03342965 0.3563319 0.9990001 12 29 34 
0.05782779 0.3502682 0.9820001 3 14 14 
0.07795404 0.3178095 0.891 65 80 95 
0.1000428 0.3160261 0.886 49 60 81 
0.1168972 0.3014019 0.845 56 61 68 
0.1120609 0.189045 0.53 20 20 16 
0.1219831 0.1836946 0.515 22 23 17 
0.1316671 0.1790577 0.502 30 30 30 
0.1616622 0.1804844 0.506 72 74 82 
0.2800711 0.2896311 0.812 173 202 243 
0.3010862 0.2899878 0.813 183 214 255 
0.3237353 0.2917712 0.818 194 227 254 
0.3512717 0.2974783 0.8340001 206 247 253 
0.3724759 0.2974783 0.8340001 182 217 250 
0.3984004 0.3010451 0.844 204 242 254 
0.4258284 0.3053254 0.8560001 212 255 255 
-0.05496795 0.3546949 0.9900001 10 22 26 
-0.02979754 0.3546949 0.9900001 10 21 32 
-0.00458974 0.3518286 0.9820001 33 50 64 
0.02066778 0.3568445 0.9960001 19 36 48 
0.04603691 0.3572028 0.997 9 21 25 
0.06789859 0.3253161 0.9080001 4 12 13 
0.08968154 0.3206585 0.895 43 52 64 
0.1082909 0.3088353 0.862 41 48 70 
0.1270348 0.3013115 0.841 36 32 33 
0.1179019 0.188454 0.526 19 20 14 
0.1276391 0.1809302 0.505 24 25 21 
0.1354714 0.1744812 0.487 41 41 43 
0.2716585 0.2902049 0.8100001 172 200 235 
0.2926133 0.2905632 0.811 176 209 254 
0.3151639 0.2923546 0.816 185 220 253 
0.3400269 0.2959373 0.826 199 238 254 
0.3645243 0.2988035 0.8340001 190 222 252 
0.3875785 0.3002367 0.8380001 189 220 255 
0.4166912 0.3059691 0.854 204 245 251 
-0.06796256 0.3584272 0.9960001 0 8 9 
-0.0422115 0.3548285 0.9860001 15 31 41 
-0.01717756 0.3555483 0.988 10 21 30 
0.007933958 0.3551884 0.987 31 48 62 
0.03332926 0.3584272 0.9960001 12 29 34 
0.05771001 0.3526693 0.98 2 13 13 
0.07821651 0.3217208 0.8940001 64 79 94 
0.101172 0.3224405 0.896 40 51 60 
0.1168972 0.3040873 0.845 37 36 43 
0.1122724 0.1910892 0.531 20 20 16 
0.1229305 0.1867708 0.5190001 22 23 17 
0.1321916 0.1813728 0.504 29 29 29 
0.158446 0.1820925 0.506 66 68 74 
0.2742328 0.291492 0.8100001 171 198 238 
0.2948268 0.291492 0.8100001 180 213 255 
0.3177572 0.2936512 0.816 190 222 255 
0.342652 0.2972499 0.826 201 244 255 
0.3667346 0.299769 0.8330001 185 217 249 
0.3902417 0.3015683 0.8380001 181 212 249 
0.4198964 0.307686 0.855 208 249 255 
-0.06466708 0.359287 0.994 0 7 8 
-0.03915717 0.3571182 0.988 20 38 47 
-0.01405183 0.3574797 0.989 8 19 28 
0.01109316 0.3574797 0.989 27 44 58 
0.03642135 0.359287 0.994 10 27 32 
0.06020387 0.350612 0.97 3 11 12 
0.07821651 0.3231414 0.8940001 66 86 101 
0.1016236 0.3253101 0.9 40 49 59 
0.1167588 0.3050686 0.844 34 34 38 
0.1137453 0.1915715 0.53 19 19 15 
0.1231397 0.1854268 0.513 23 24 18 
0.1337934 0.1821737 0.504 30 30 30 
0.1603704 0.183258 0.507 79 81 91 
0.276807 0.2927791 0.8100001 169 198 239 
0.297401 0.2927791 0.8100001 178 208 252 
0.3203505 0.2949479 0.816 190 222 254 
0.3456951 0.2989239 0.827 202 245 255 
0.3689385 0.3007311 0.832 184 216 250 
0.392905 0.3028999 0.8380001 187 219 251 
0.4236022 0.3097675 0.8570001 211 253 254 
-0.06466708 0.3608665 0.994 0 7 8 
-0.03915717 0.3586882 0.988 23 40 52 
-0.01408024 0.3597774 0.9910001 3 16 25 
0.01109316 0.3590513 0.989 27 44 56 
0.03638471 0.3605034 0.993 12 26 32 
0.06020387 0.3521534 0.97 3 11 12 
0.07839149 0.3252881 0.896 74 95 112 
0.1019624 0.3278294 0.9030001 40 49 59 
0.1192996 0.3060467 0.8430001 31 31 33 
0.1137453 0.1924137 0.53 19 19 15 
0.1233798 0.186605 0.514 23 24 18 
0.1343243 0.1837007 0.506 30 30 30 
0.1517131 0.1833376 0.505 55 58 61 
0.2687521 0.2937032 0.809 168 199 240 
0.288963 0.2933401 0.808 174 204 250 
0.3114214 0.2951554 0.813 184 215 254 
0.334951 0.2976967 0.8200001 194 230 254 
0.3605721 0.3016902 0.831 188 224 250 
0.3826186 0.3024163 0.8330001 180 214 252 
0.4139771 0.3100402 0.854 206 247 253 
-0.0773809 0.3628106 0.9950001 28 44 54 
-0.05166461 0.3598936 0.987 19 32 41 
-0.02678584 0.3628106 0.9950001 16 36 47 
-0.001479334 0.3606228 0.989 14 27 36 
0.02380922 0.3628106 0.9950001 16 34 43 
0.04900805 0.3620813 0.993 6 16 19 
0.06879593 0.3354631 0.92 4 12 13 
0.09018255 0.3281704 0.9 56 71 86 
0.1090447 0.3165021 0.868 25 30 35 
0.1065843 0.2089352 0.573 115 109 113 
0.1152119 0.1928913 0.529 20 20 16 
0.1245269 0.1866925 0.512 24 25 19 
0.1362011 0.1848693 0.507 33 33 29 
0.1517131 0.1841401 0.505 55 58 61 
0.2629583 0.2942595 0.807 186 213 251 
0.283476 0.2942595 0.807 173 203 249 
0.3055004 0.295718 0.811 180 214 252 
0.3289346 0.2982704 0.818 193 229 255 
0.3540075 0.3019168 0.8280001 203 244 252 
0.376418 0.3030107 0.831 181 212 251 
0.403765 0.3077509 0.844 209 248 253 
-0.08395766 0.3654904 0.998 19 33 37 
-0.05811425 0.3625606 0.9900001 8 20 24 
-0.03297712 0.3629268 0.9910001 25 42 56 
-0.007796987 0.3636593 0.993 5 17 23 
0.01743212 0.363293 0.992 21 39 48 
0.04269638 0.3636593 0.993 9 21 23 
0.06547987 0.3504752 0.957 1 9 8 
0.08427431 0.3288681 0.8980001 74 96 110 
0.1072249 0.3292343 0.899 27 34 38 
0.1065843 0.2098457 0.573 115 109 113 
0.1152119 0.1937319 0.529 20 20 16 
0.1247701 0.1878723 0.513 25 25 19 
0.137007 0.1867736 0.5100001 33 33 29 
0.1499736 0.1867736 0.5100001 48 48 52 
0.2571898 0.2948094 0.8050001 171 190 208 
0.2783465 0.2955418 0.807 170 201 242 
0.2992345 0.295908 0.808 178 208 252 
0.3229438 0.2988378 0.816 189 221 253 
0.3479022 0.3025 0.826 206 250 255 
0.371136 0.3043312 0.831 182 213 252 
0.3946241 0.3061623 0.836 200 239 255 
0.4258284 0.3134867 0.8560001 211 253 254 
-0.06762139 0.3645016 0.9910001 0 12 16 
-0.04216869 0.3622947 0.9850001 25 40 53 
-0.01735142 0.3670762 0.998 14 34 47 
0.007974151 0.3648694 0.992 18 34 42 
0.03319541 0.3648694 0.992 12 26 32 
0.05782779 0.3611913 0.9820001 4 12 13 
0.07579687 0.3306629 0.899 104 126 148 
0.09909259 0.3321341 0.9030001 51 64 75 
0.1171738 0.3115367 0.8470001 31 31 31 
0.1126952 0.1960437 0.5330001 20 20 16 
0.1229305 0.1908944 0.5190001 23 24 18 
0.1342899 0.1883197 0.512 31 31 27 
0.1467319 0.1875841 0.5100001 44 43 43 
0.1587591 0.1864806 0.507 101 102 115 
0.2732171 0.2968242 0.807 169 199 243 
0.2937348 0.2968242 0.807 182 212 255 
0.3161995 0.2986632 0.812 183 214 253 
0.3405778 0.3019736 0.821 202 245 255 
0.3649735 0.3049161 0.8290001 182 217 248 
0.3865163 0.3052838 0.83 188 223 255 
0.417932 0.3130079 0.851 207 248 254 
-0.07699206 0.3657069 0.9900001 31 46 59 
-0.05161227 0.3642293 0.9860001 21 37 45 
-0.026732 0.3668151 0.993 21 41 54 
-0.001486813 0.3671845 0.994 4 16 22 
0.02376137 0.3668151 0.993 17 35 42 
0.04900805 0.3668151 0.993 5 15 18 
0.0699176 0.3453898 0.9350001 3 11 10 
0.09018255 0.3324608 0.9 74 94 107 
0.111288 0.3191624 0.864 29 32 33 
0.1094569 0.2101891 0.569 61 56 66 
0.1179019 0.1943049 0.526 23 23 19 
0.1285299 0.1902415 0.515 27 27 23 
0.1413486 0.1898721 0.514 42 39 36 
0.1529148 0.1880251 0.509 69 68 70 
0.2626324 0.2977371 0.8060001 188 215 255 
0.2831247 0.2977371 0.8060001 176 206 250 
0.3039936 0.2981065 0.807 182 213 254 
0.3277283 0.3010617 0.8150001 191 223 255 
0.3531524 0.3051251 0.826 200 240 251 
0.3755121 0.3062333 0.8290001 178 212 252 
0.4004163 0.3091885 0.837 209 248 253 
-0.09030112 0.370248 0.998 6 14 15 
-0.0643418 0.3669091 0.989 0 6 9 
-0.03891938 0.3643121 0.9820001 25 42 56 
-0.01416549 0.369877 0.997 16 36 49 
0.01112681 0.3680221 0.992 12 26 32 
0.03638471 0.368393 0.993 9 23 27 
0.06082453 0.3635702 0.98 1 9 8 
0.07865396 0.33352 0.899 103 125 149 
0.1016236 0.333891 0.9 52 63 72 
0.1174505 0.3149705 0.849 33 32 32 
0.1116515 0.2051575 0.553 23 20 17 
0.1193462 0.1947697 0.525 24 24 20 
0.1304194 0.1914308 0.516 27 28 24 
0.1432603 0.1910598 0.515 46 42 43 
0.1545324 0.1888339 0.509 82 81 83 
0.2648649 0.2986469 0.8050001 183 212 251 
0.2856862 0.2990179 0.8060001 175 205 251 
0.3061785 0.2990179 0.8060001 178 209 250 
0.3303185 0.3023568 0.8150001 193 229 255 
0.3557775 0.3064377 0.826 195 232 251 
0.3776906 0.3071797 0.8280001 175 208 251 
0.4035579 0.3108896 0.8380001 206 247 253 
-0.08678018 0.3703435 0.994 8 16 17 
-0.06107491 0.3677355 0.987 0 8 9 
-0.0357985 0.3658726 0.9820001 25 42 56 
-0.01098591 0.3710887 0.9960001 16 36 49 
0.01429386 0.3699709 0.993 12 24 30 
0.03962018 0.3707161 0.9950001 9 21 23 
0.06367808 0.3636371 0.9760001 1 9 8 
0.08151106 0.3349485 0.899 98 125 147 
0.1041356 0.3342034 0.897 44 53 63 
0.1043976 0.2127426 0.571 111 102 107 
0.1122509 0.2008201 0.539 23 20 17 
0.1222158 0.1948588 0.523 26 26 22 
0.1342174 0.1929959 0.518 29 30 26 
0.1462492 0.1915056 0.514 54 50 51 
