ply
format ascii 1.0
element vertex 1205
property float32 x
property float32 y
property float32 z
property uchar red
property uchar green
property uchar blue
end_header
-0.02127699 0.004318241 0.497 19 19 15 
-0.01969749 0.004318241 0.497 23 23 19 
-0.01811798 0.004318241 0.497 24 24 20 
-0.01653847 0.004318241 0.497 29 26 23 
-0.01498907 0.004326929 0.498 28 23 19 
-0.01340638 0.004326929 0.498 32 22 20 
-0.0118237 0.004326929 0.498 39 27 25 
-0.01024101 0.004326929 0.498 62 50 50 
-0.008640939 0.004318241 0.497 91 79 77 
-0.007061433 0.004318241 0.497 99 84 83 
-0.005481927 0.004318241 0.497 108 93 92 
-0.00390242 0.004318241 0.497 115 100 99 
-0.002318239 0.004309552 0.496 117 100 102 
-0.0007419107 0.004309552 0.496 120 103 103 
0.0008344179 0.004309552 0.496 121 104 104 
0.002405886 0.004300863 0.495 126 106 107 
0.003979037 0.004300863 0.495 130 110 111 
0.005552188 0.004300863 0.495 136 116 117 
0.007110943 0.004292175 0.494 138 116 118 
0.008680915 0.004292175 0.494 141 119 121 
0.01023014 0.004283486 0.493 150 128 130 
0.01179693 0.004283486 0.493 154 134 135 
0.01336373 0.004283486 0.493 161 141 144 
0.01493052 0.004283486 0.493 167 149 155 
0.01646385 0.004274798 0.492 174 156 162 
0.01802747 0.004274798 0.492 177 159 167 
0.0196309 0.004283486 0.493 179 161 169 
0.0211977 0.004283486 0.493 183 167 176 
0.02276449 0.004283486 0.493 184 170 181 
0.02438064 0.004292175 0.494 188 174 185 
0.02595061 0.004292175 0.494 186 174 185 
0.02752059 0.004292175 0.494 192 180 193 
0.02914944 0.004300863 0.495 189 177 190 
0.0307226 0.004300863 0.495 188 176 189 
0.03229575 0.004300863 0.495 192 180 191 
0.03393732 0.004309552 0.496 192 180 191 
0.03558525 0.004318241 0.497 190 178 189 
0.03716476 0.004318241 0.497 189 178 186 
0.03882222 0.004326929 0.498 191 178 186 
0.04048604 0.004335618 0.499 194 178 187 
0.04224053 0.004352996 0.501 194 178 187 
0.04392023 0.004361684 0.502 195 177 187 
0.04569697 0.004379061 0.504 200 182 190 
0.04739257 0.004387749 0.505 203 187 194 
0.04919155 0.004405127 0.507 204 188 195 
0.05110345 0.004431193 0.5100001 207 191 198 
0.05293103 0.00444857 0.512 208 192 199 
0.05466476 0.004457259 0.513 212 196 203 
0.05640486 0.004465947 0.514 212 196 203 
0.05815131 0.004474636 0.515 211 193 201 
0.05990412 0.004483324 0.516 207 189 197 
0.06178255 0.004500702 0.518 202 184 192 
0.0636737 0.004518079 0.52 199 183 188 
0.06570318 0.004544144 0.523 191 175 180 
0.06775173 0.00457021 0.526 183 165 173 
0.06981936 0.004596277 0.529 158 137 146 
0.07177088 0.004613654 0.531 122 101 110 
0.07373513 0.004631031 0.5330001 118 102 109 
0.07542904 0.004631031 0.5330001 117 108 113 
0.07726765 0.00463972 0.534 114 109 117 
0.07911263 0.004648408 0.535 123 121 130 
0.08096395 0.004657097 0.536 125 135 142 
-0.105103 0.005529378 0.538 19 30 39 
-0.103201 0.0055191 0.537 11 21 24 
-0.1013054 0.005508822 0.536 7 15 14 
-0.09904449 0.00547799 0.5330001 5 11 11 
-0.09698527 0.005457434 0.531 5 11 11 
-0.09511824 0.005447156 0.53 5 11 11 
-0.09308127 0.005426601 0.528 4 10 8 
-0.09123013 0.005416323 0.527 2 8 6 
-0.08955529 0.005416323 0.527 1 7 5 
-0.08771368 0.005406046 0.526 4 7 6 
-0.08587843 0.005395768 0.525 6 9 8 
-0.08404955 0.005385491 0.524 6 9 8 
-0.082227 0.005375213 0.523 4 7 6 
-0.08025678 0.005354658 0.521 3 6 5 
-0.07845014 0.00534438 0.52 3 6 5 
-0.07664985 0.005334103 0.5190001 6 9 8 
-0.0747114 0.005313547 0.517 7 10 9 
-0.072927 0.005303269 0.516 7 10 9 
-0.07114895 0.005292992 0.515 6 9 8 
-0.06937727 0.005282714 0.514 11 14 15 
-0.06774373 0.005282714 0.514 10 13 14 
-0.06611019 0.005282714 0.514 10 13 14 
-0.06447666 0.005282714 0.514 11 14 15 
-0.06272087 0.005272436 0.513 6 9 10 
-0.06109051 0.005272436 0.513 8 11 10 
-0.05946016 0.005272436 0.513 10 13 14 
-0.0578298 0.005272436 0.513 4 7 8 
-0.05608989 0.005262159 0.512 2 5 6 
-0.05446271 0.005262159 0.512 3 6 7 
-0.05273234 0.005251881 0.511 4 7 6 
-0.05100833 0.005241604 0.5100001 6 6 6 
-0.04919383 0.005221048 0.508 6 6 6 
-0.04748571 0.00521077 0.507 8 8 8 
-0.04578394 0.005200493 0.506 6 6 6 
-0.04408852 0.005190215 0.505 8 8 8 
-0.04239946 0.005179937 0.504 6 6 6 
-0.04079771 0.005179937 0.504 9 9 9 
-0.03919595 0.005179937 0.504 9 9 9 
-0.03751961 0.00516966 0.503 11 11 11 
-0.03592103 0.00516966 0.503 13 13 13 
-0.03425422 0.005159382 0.502 13 13 13 
-0.03259378 0.005149105 0.501 13 13 13 
-0.03093967 0.005138827 0.5 12 12 12 
-0.02929193 0.005128549 0.499 13 13 13 
-0.02770607 0.005128549 0.499 12 12 12 
-0.02606786 0.005118271 0.498 16 15 15 
-0.02443601 0.005107994 0.497 16 15 15 
-0.0228565 0.005107994 0.497 16 16 16 
-0.02127699 0.005107994 0.497 20 20 16 
-0.01969749 0.005107994 0.497 23 23 19 
-0.01811798 0.005107994 0.497 24 24 20 
-0.01653847 0.005107994 0.497 28 25 20 
-0.01498907 0.005118271 0.498 28 23 19 
-0.01340638 0.005118271 0.498 31 23 20 
-0.0118237 0.005118271 0.498 43 33 31 
-0.01024101 0.005118271 0.498 76 64 62 
-0.008640939 0.005107994 0.497 95 83 81 
-0.007061433 0.005107994 0.497 98 86 84 
-0.005481927 0.005107994 0.497 106 94 92 
-0.00390242 0.005107994 0.497 114 99 98 
-0.002318239 0.005097716 0.496 116 99 99 
-0.0007419107 0.005097716 0.496 120 103 103 
0.0008344179 0.005097716 0.496 121 104 104 
0.002405886 0.005087439 0.495 125 105 106 
0.003979037 0.005087439 0.495 129 109 110 
0.005552188 0.005087439 0.495 133 113 114 
0.007110943 0.005077161 0.494 138 116 118 
0.008680915 0.005077161 0.494 141 119 121 
0.01023014 0.005066883 0.493 148 126 128 
0.01179693 0.005066883 0.493 153 133 134 
0.01336373 0.005066883 0.493 160 140 143 
0.01493052 0.005066883 0.493 167 149 155 
0.01646385 0.005056606 0.492 174 156 164 
0.01802747 0.005056606 0.492 175 159 166 
0.0196309 0.005066883 0.493 178 162 171 
0.0211977 0.005066883 0.493 183 166 178 
0.02276449 0.005066883 0.493 185 171 182 
0.02438064 0.005077161 0.494 186 174 185 
0.02595061 0.005077161 0.494 186 174 185 
0.02752059 0.005077161 0.494 188 176 187 
0.02914944 0.005087439 0.495 188 176 187 
0.0307226 0.005087439 0.495 185 173 184 
0.03229575 0.005087439 0.495 188 176 187 
0.03393732 0.005097716 0.496 189 177 188 
0.03558525 0.005107994 0.497 187 175 186 
0.03716476 0.005107994 0.497 189 176 184 
0.03882222 0.005118271 0.498 188 175 183 
0.04048604 0.005128549 0.499 192 174 184 
0.04224053 0.005149105 0.501 192 174 184 
0.04392023 0.005159382 0.502 192 171 180 
0.0456063 0.00516966 0.503 197 179 187 
0.04739257 0.005190215 0.505 200 182 190 
0.04919155 0.00521077 0.507 198 182 189 
0.05110345 0.005241604 0.5100001 204 188 195 
0.05282765 0.005251881 0.511 206 190 197 
0.05466476 0.005272436 0.513 210 194 201 
0.05640486 0.005282714 0.514 212 196 203 
0.05815131 0.005292992 0.515 208 192 199 
0.05990412 0.005303269 0.516 205 189 196 
0.06190182 0.005334103 0.5190001 200 184 191 
0.06379614 0.005354658 0.521 197 179 185 
0.06582881 0.005385491 0.524 182 166 171 
0.06788053 0.005416323 0.527 172 151 158 
0.06995134 0.005447156 0.53 133 112 119 
0.07190604 0.005467711 0.532 112 94 102 
0.07373513 0.00547799 0.5330001 109 96 102 
0.07557056 0.005488267 0.534 108 99 106 
0.07741234 0.005498545 0.535 112 107 115 
0.0792605 0.005508822 0.536 124 122 131 
0.08111499 0.0055191 0.537 130 137 145 
-0.105103 0.006384282 0.538 22 35 46 
-0.103201 0.006372415 0.537 12 22 25 
-0.1013054 0.006360548 0.536 7 15 14 
-0.09904449 0.006324949 0.5330001 5 11 11 
-0.09698527 0.006301215 0.531 5 11 11 
-0.09493877 0.006277482 0.529 6 9 10 
-0.09308127 0.006265615 0.528 2 8 6 
-0.09123013 0.006253748 0.527 2 8 6 
-0.08955529 0.006253748 0.527 3 6 5 
-0.08771368 0.006241881 0.526 4 7 6 
-0.08587843 0.006230015 0.525 4 7 6 
-0.08404955 0.006218148 0.524 6 9 8 
-0.082227 0.006206281 0.523 3 6 5 
-0.08025678 0.006182548 0.521 3 6 5 
-0.07845014 0.006170682 0.52 3 6 5 
-0.07664985 0.006158815 0.5190001 6 9 8 
-0.0747114 0.006135081 0.517 7 10 9 
-0.072927 0.006123214 0.516 6 9 8 
-0.07114895 0.006111348 0.515 6 9 8 
-0.06937727 0.006099481 0.514 11 14 13 
-0.06774373 0.006099481 0.514 10 13 14 
-0.06611019 0.006099481 0.514 10 13 14 
-0.06447666 0.006099481 0.514 11 14 15 
-0.06284313 0.006099481 0.514 7 10 11 
-0.06109051 0.006087614 0.513 7 10 11 
-0.05946016 0.006087614 0.513 9 12 13 
-0.0578298 0.006087614 0.513 4 7 8 
-0.05619944 0.006087614 0.513 2 5 6 
-0.05446271 0.006075748 0.512 4 7 8 
-0.05273234 0.006063881 0.511 4 7 6 
-0.05100833 0.006052015 0.5100001 6 6 6 
-0.04929066 0.006040148 0.509 6 6 6 
-0.04757936 0.006028281 0.508 6 6 6 
-0.04587442 0.006016414 0.507 6 6 6 
-0.04408852 0.005992681 0.505 6 6 6 
-0.04248359 0.005992681 0.505 6 6 6 
-0.04079771 0.005980814 0.504 9 9 9 
-0.03919595 0.005980814 0.504 10 10 10 
-0.0375942 0.005980814 0.504 11 11 11 
-0.03592103 0.005968947 0.503 12 12 12 
-0.03425422 0.005957081 0.502 13 13 13 
-0.03259378 0.005945215 0.501 13 13 13 
-0.03100155 0.005945215 0.501 12 12 12 
-0.02935063 0.005933347 0.5 13 13 13 
-0.02770607 0.005921481 0.499 12 12 12 
-0.02606786 0.005909614 0.498 16 15 15 
-0.02443601 0.005897747 0.497 16 15 15 
-0.0228565 0.005897747 0.497 17 17 13 
-0.02127699 0.005897747 0.497 21 21 17 
-0.01969749 0.005897747 0.497 23 23 19 
-0.01811798 0.005897747 0.497 25 22 19 
-0.01653847 0.005897747 0.497 27 24 19 
-0.01498907 0.005909614 0.498 30 22 19 
-0.01340638 0.005909614 0.498 39 29 27 
-0.0118237 0.005909614 0.498 51 41 41 
-0.01024101 0.005909614 0.498 89 77 75 
-0.008640939 0.005897747 0.497 98 86 84 
-0.007061433 0.005897747 0.497 98 86 84 
-0.005481927 0.005897747 0.497 106 94 92 
-0.00390242 0.005897747 0.497 114 97 97 
-0.002318239 0.00588588 0.496 116 99 99 
-0.0007419107 0.00588588 0.496 119 102 102 
0.0008344179 0.00588588 0.496 120 103 103 
0.002405886 0.005874014 0.495 121 104 104 
0.003979037 0.005874014 0.495 128 108 109 
0.005552188 0.005874014 0.495 132 112 113 
0.007110943 0.005862147 0.494 137 117 118 
0.008680915 0.005862147 0.494 143 121 123 
0.01023014 0.005850281 0.493 147 125 127 
0.01179693 0.005850281 0.493 153 133 136 
0.01336373 0.005850281 0.493 160 140 143 
0.01493052 0.005850281 0.493 166 148 154 
0.01649732 0.005850281 0.493 173 155 163 
0.01806411 0.005850281 0.493 173 157 164 
0.0196309 0.005850281 0.493 177 161 170 
0.0211977 0.005850281 0.493 181 167 178 
0.02276449 0.005850281 0.493 183 171 182 
0.02438064 0.005862147 0.494 183 171 184 
0.02595061 0.005862147 0.494 185 173 186 
0.0275763 0.005874014 0.495 183 171 184 
0.02914944 0.005874014 0.495 182 170 183 
0.0307226 0.005874014 0.495 182 168 179 
0.03236099 0.00588588 0.496 182 168 179 
0.03393732 0.00588588 0.496 188 174 185 
0.03558525 0.005897747 0.497 185 171 182 
0.03716476 0.005897747 0.497 183 170 178 
0.03882222 0.005909614 0.498 186 170 177 
0.04048604 0.005921481 0.499 187 171 178 
0.04224053 0.005945215 0.501 188 170 178 
0.04392023 0.005957081 0.502 188 167 176 
0.0456063 0.005968947 0.503 190 172 180 
0.04739257 0.005992681 0.505 195 177 185 
0.04919155 0.006016414 0.507 198 180 188 
0.05100324 0.006040148 0.509 201 185 192 
0.05282765 0.006063881 0.511 204 188 195 
0.05466476 0.006087614 0.513 208 192 199 
0.05640486 0.006099481 0.514 211 195 202 
0.05815131 0.006111348 0.515 208 192 199 
0.05990412 0.006123214 0.516 203 187 194 
0.06190182 0.006158815 0.5190001 198 182 187 
0.06391859 0.006194415 0.522 190 172 178 
0.06595444 0.006230015 0.525 174 154 157 
0.06800934 0.006265615 0.528 157 135 139 
0.07008332 0.006301215 0.531 124 101 109 
0.07204121 0.006324949 0.5330001 106 88 94 
0.07387347 0.006336815 0.534 103 90 96 
0.07571208 0.006348682 0.535 104 95 102 
0.07755704 0.006360548 0.536 113 108 116 
0.07940837 0.006372415 0.537 124 122 131 
0.08126605 0.006384282 0.538 129 134 143 
-0.1054937 0.007266098 0.54 21 34 45 
-0.103201 0.00722573 0.537 13 23 26 
-0.1013054 0.007212274 0.536 8 16 15 
-0.09904449 0.007171908 0.5330001 5 11 11 
-0.09698527 0.007144996 0.531 5 11 11 
-0.09493877 0.007118084 0.529 6 9 10 
-0.09308127 0.007104628 0.528 4 7 6 
-0.09123013 0.007091173 0.527 4 7 6 
-0.08955529 0.007091173 0.527 4 7 6 
-0.08771368 0.007077717 0.526 4 7 6 
-0.08587843 0.007064261 0.525 4 7 6 
-0.08404955 0.007050806 0.524 4 7 6 
-0.082227 0.00703735 0.523 3 6 5 
-0.08025678 0.007010438 0.521 3 6 5 
-0.07845014 0.006996983 0.52 4 7 6 
-0.07664985 0.006983527 0.5190001 6 9 8 
-0.0748559 0.006970071 0.518 6 9 8 
-0.072927 0.00694316 0.516 6 9 8 
-0.07114895 0.006929704 0.515 6 9 8 
-0.06951225 0.006929704 0.515 11 14 13 
-0.06787553 0.006929704 0.515 10 13 12 
-0.06611019 0.006916248 0.514 11 14 15 
-0.06447666 0.006916248 0.514 11 14 15 
-0.06284313 0.006916248 0.514 7 10 11 
-0.06120959 0.006916248 0.514 7 10 11 
-0.05946016 0.006902792 0.513 9 12 13 
-0.0578298 0.006902792 0.513 4 7 8 
-0.05619944 0.006902792 0.513 3 6 7 
-0.05456908 0.006902792 0.513 3 6 7 
-0.05283554 0.006889337 0.512 4 7 8 
-0.05110835 0.006875881 0.511 6 6 6 
-0.04938751 0.006862426 0.5100001 6 6 6 
-0.04757936 0.006835514 0.508 6 6 6 
-0.04587442 0.006822058 0.507 6 6 6 
-0.04417583 0.006808603 0.506 6 6 6 
-0.04248359 0.006795147 0.505 6 6 6 
-0.04079771 0.006781691 0.504 9 9 9 
-0.03919595 0.006781691 0.504 10 10 10 
-0.0375942 0.006781691 0.504 11 11 11 
-0.03592103 0.006768235 0.503 12 12 12 
-0.03432246 0.006768235 0.503 12 12 12 
-0.03265883 0.00675478 0.502 13 13 13 
-0.03100155 0.006741324 0.501 12 12 12 
-0.02935063 0.006727868 0.5 13 13 13 
-0.02770607 0.006714412 0.499 13 12 12 
-0.02606786 0.006700957 0.498 17 16 16 
-0.02443601 0.006687501 0.497 16 15 15 
-0.0228565 0.006687501 0.497 17 17 13 
-0.02127699 0.006687501 0.497 20 20 16 
-0.01969749 0.006687501 0.497 25 22 19 
-0.01811798 0.006687501 0.497 25 22 19 
-0.01653847 0.006687501 0.497 26 23 18 
-0.01498907 0.006700957 0.498 33 23 21 
-0.01340638 0.006700957 0.498 48 36 34 
-0.0118237 0.006700957 0.498 65 55 53 
-0.01024101 0.006700957 0.498 96 84 82 
-0.008640939 0.006687501 0.497 99 87 85 
-0.007061433 0.006687501 0.497 100 88 86 
-0.005481927 0.006687501 0.497 106 94 92 
-0.00390242 0.006687501 0.497 114 97 97 
-0.002318239 0.006674045 0.496 114 97 97 
-0.0007419107 0.006674045 0.496 117 100 100 
0.0008344179 0.006674045 0.496 119 102 102 
0.002405886 0.006660589 0.495 119 102 102 
0.003979037 0.006660589 0.495 124 107 107 
0.005552188 0.006660589 0.495 131 111 112 
0.007110943 0.006647134 0.494 136 116 117 
0.008680915 0.006647134 0.494 143 121 123 
0.01023014 0.006633678 0.493 147 125 129 
0.01179693 0.006633678 0.493 152 132 135 
0.01336373 0.006633678 0.493 160 139 146 
0.01493052 0.006633678 0.493 163 145 153 
0.01649732 0.006633678 0.493 170 154 161 
0.01806411 0.006633678 0.493 171 155 164 
0.0196309 0.006633678 0.493 172 155 167 
0.0211977 0.006633678 0.493 175 163 174 
0.02276449 0.006633678 0.493 181 171 183 
0.02438064 0.006647134 0.494 179 169 181 
0.02595061 0.006647134 0.494 182 170 183 
0.0275763 0.006660589 0.495 176 164 177 
0.02914944 0.006660589 0.495 174 162 175 
0.03078466 0.006674045 0.496 172 155 167 
0.03236099 0.006674045 0.496 171 154 166 
0.03400574 0.006687501 0.497 170 153 165 
0.03558525 0.006687501 0.497 178 162 171 
0.03723953 0.006700957 0.498 177 161 170 
0.03890017 0.006714412 0.499 181 163 171 
0.04048604 0.006714412 0.499 183 165 173 
0.04224053 0.006741324 0.501 183 165 173 
0.04392023 0.00675478 0.502 185 164 173 
0.0456063 0.006768235 0.503 188 167 176 
0.04739257 0.006795147 0.505 196 175 184 
0.04919155 0.006822058 0.507 197 179 187 
0.05100324 0.006848969 0.509 199 181 189 
0.05282765 0.006875881 0.511 205 187 195 
0.05466476 0.006902792 0.513 209 191 199 
0.05640486 0.006916248 0.514 211 195 202 
0.05815131 0.006929704 0.515 207 191 198 
0.05990412 0.00694316 0.516 200 184 189 
0.06202109 0.006996983 0.52 193 177 182 
0.06404104 0.00703735 0.523 184 162 166 
0.06595444 0.007064261 0.525 164 140 142 
0.06800934 0.007104628 0.528 147 123 125 
0.07008332 0.007144996 0.531 115 93 97 
0.07204121 0.007171908 0.5330001 101 83 89 
0.07387347 0.007185363 0.534 101 85 92 
0.07571208 0.007198819 0.535 100 89 97 
0.07755704 0.007212274 0.536 115 108 117 
0.07955625 0.007239186 0.538 125 123 130 
0.08126605 0.007239186 0.538 128 130 140 
-0.1054937 0.008124179 0.54 21 34 45 
-0.1033932 0.00809409 0.538 13 23 26 
-0.1013054 0.008064 0.536 8 16 15 
-0.0992303 0.008033911 0.534 4 12 11 
-0.09698527 0.007988776 0.531 4 10 10 
-0.09493877 0.007958687 0.529 6 9 8 
-0.09308127 0.007943641 0.528 4 7 6 
-0.09123013 0.007928597 0.527 4 7 6 
-0.08955529 0.007928597 0.527 4 7 6 
-0.08771368 0.007913552 0.526 4 7 6 
-0.08587843 0.007898508 0.525 4 7 6 
-0.08404955 0.007883463 0.524 4 7 6 
-0.082227 0.007868418 0.523 3 6 5 
-0.08041082 0.007853373 0.522 3 6 5 
-0.078601 0.007838328 0.521 4 7 6 
-0.07664985 0.00780824 0.5190001 6 9 8 
-0.0748559 0.007793194 0.518 6 9 8 
-0.07306833 0.00777815 0.517 6 9 8 
-0.07128711 0.007763105 0.516 6 9 8 
-0.06951225 0.00774806 0.515 10 13 12 
-0.06787553 0.00774806 0.515 9 12 11 
-0.06623882 0.00774806 0.515 13 16 15 
-0.06447666 0.007733015 0.514 11 14 13 
-0.06284313 0.007733015 0.514 7 10 11 
-0.06120959 0.007733015 0.514 7 10 11 
-0.05946016 0.00771797 0.513 10 13 14 
-0.0578298 0.00771797 0.513 4 7 8 
-0.05619944 0.00771797 0.513 3 6 7 
-0.05456908 0.00771797 0.513 3 6 7 
-0.05293873 0.00771797 0.513 4 7 8 
-0.05120836 0.007702926 0.512 4 7 6 
-0.04948435 0.007687881 0.511 6 6 6 
-0.04767302 0.007657791 0.509 6 6 6 
-0.04587442 0.007627702 0.507 6 6 6 
-0.04417583 0.007612657 0.506 6 6 6 
-0.04248359 0.007597612 0.505 6 6 6 
-0.04087865 0.007597612 0.505 10 10 10 
-0.03919595 0.007582567 0.504 10 10 10 
-0.0375942 0.007582567 0.504 11 11 11 
-0.03592103 0.007567523 0.503 12 12 12 
-0.03432246 0.007567523 0.503 12 12 12 
-0.03265883 0.007552478 0.502 13 13 13 
-0.03100155 0.007537433 0.501 12 12 12 
-0.02935063 0.007522388 0.5 13 13 13 
-0.02770607 0.007507343 0.499 13 12 12 
-0.02606786 0.007492299 0.498 17 16 16 
-0.02443601 0.007477254 0.497 16 15 15 
-0.0228565 0.007477254 0.497 17 16 16 
-0.02127699 0.007477254 0.497 20 20 16 
-0.01969749 0.007477254 0.497 23 20 17 
-0.01811798 0.007477254 0.497 25 22 19 
-0.01653847 0.007477254 0.497 28 23 19 
-0.01498907 0.007492299 0.498 40 28 26 
-0.01340638 0.007492299 0.498 56 41 40 
-0.0118237 0.007492299 0.498 85 73 71 
-0.01024101 0.007492299 0.498 97 85 83 
-0.008640939 0.007477254 0.497 100 88 86 
-0.007061433 0.007477254 0.497 102 90 88 
-0.005481927 0.007477254 0.497 108 93 92 
-0.00390242 0.007477254 0.497 113 96 96 
-0.002318239 0.007462209 0.496 113 96 96 
-0.0007419107 0.007462209 0.496 116 99 99 
0.0008327357 0.007447165 0.495 119 102 102 
0.002405886 0.007447165 0.495 119 102 102 
0.003979037 0.007447165 0.495 125 105 106 
0.005540971 0.007432119 0.494 130 110 111 
0.007110943 0.007432119 0.494 136 116 117 
0.008680915 0.007432119 0.494 142 122 123 
0.01023014 0.007417075 0.493 145 125 128 
0.01179693 0.007417075 0.493 151 131 134 
0.01336373 0.007417075 0.493 159 138 145 
0.01493052 0.007417075 0.493 159 141 149 
0.01649732 0.007417075 0.493 168 152 159 
0.01806411 0.007417075 0.493 170 154 163 
0.0196309 0.007417075 0.493 166 149 161 
0.0211977 0.007417075 0.493 172 160 173 
0.02276449 0.007417075 0.493 177 167 179 
0.02438064 0.007432119 0.494 175 163 176 
0.02600315 0.007447165 0.495 173 161 174 
0.0275763 0.007447165 0.495 169 157 168 
0.02920833 0.007462209 0.496 161 149 160 
0.03078466 0.007462209 0.496 168 152 161 
0.03236099 0.007462209 0.496 156 140 149 
0.03400574 0.007477254 0.497 156 140 147 
0.03558525 0.007477254 0.497 157 141 148 
0.03723953 0.007492299 0.498 166 148 156 
0.03890017 0.007507343 0.499 176 158 166 
0.04056717 0.007522388 0.5 178 157 166 
0.04224053 0.007537433 0.501 180 159 168 
0.04392023 0.007552478 0.502 181 158 168 
0.0456063 0.007567523 0.503 184 161 171 
0.04739257 0.007597612 0.505 193 172 181 
0.04919155 0.007627702 0.507 197 176 185 
0.05100324 0.007657791 0.509 197 179 187 
0.05282765 0.007687881 0.511 202 184 192 
0.05466476 0.00771797 0.513 209 191 199 
0.05640486 0.007733015 0.514 210 194 201 
0.05815131 0.00774806 0.515 206 190 195 
0.0601363 0.007793194 0.518 199 183 188 
0.06202109 0.007823284 0.52 195 174 181 
0.06404104 0.007868418 0.523 181 157 159 
0.06608006 0.007913552 0.526 158 131 134 
0.06813814 0.007958687 0.529 137 110 113 
0.07008332 0.007988776 0.531 113 90 98 
0.07204121 0.008018866 0.5330001 102 84 90 
0.07387347 0.008033911 0.534 104 91 97 
0.07585359 0.008064 0.536 141 128 134 
0.07770173 0.008079045 0.537 148 139 146 
0.07955625 0.00809409 0.538 137 135 142 
0.08126605 0.00809409 0.538 134 139 148 
-0.1058845 0.00901553 0.5420001 22 34 48 
-0.1033932 0.008948995 0.538 16 26 31 
-0.1013054 0.008915727 0.536 8 16 15 
-0.0992303 0.008882459 0.534 5 13 12 
-0.09716792 0.008849191 0.532 4 10 8 
-0.09511824 0.008815924 0.53 6 9 8 
-0.09308127 0.008782656 0.528 4 7 6 
-0.09123013 0.008766023 0.527 4 7 6 
-0.08955529 0.008766023 0.527 4 7 6 
-0.08771368 0.008749388 0.526 4 7 6 
-0.08587843 0.008732755 0.525 4 7 6 
-0.08404955 0.008716121 0.524 4 7 6 
-0.082227 0.008699487 0.523 3 6 5 
-0.08041082 0.008682854 0.522 3 6 5 
-0.078601 0.008666219 0.521 4 7 6 
-0.07679754 0.008649586 0.52 7 10 9 
-0.07500042 0.008632952 0.5190001 7 10 9 
-0.07306833 0.008599685 0.517 6 9 8 
-0.07128711 0.00858305 0.516 6 9 8 
-0.06964722 0.00858305 0.516 9 12 11 
-0.06787553 0.008566417 0.515 9 12 11 
-0.06623882 0.008566417 0.515 14 17 16 
-0.06460211 0.008566417 0.515 11 14 13 
-0.06284313 0.008549782 0.514 7 10 9 
-0.06120959 0.008549782 0.514 8 11 12 
-0.05957606 0.008549782 0.514 11 14 15 
-0.0578298 0.008533149 0.513 4 7 8 
-0.05619944 0.008533149 0.513 3 6 7 
-0.05456908 0.008533149 0.513 3 6 7 
-0.05293873 0.008533149 0.513 3 6 7 
-0.05120836 0.008516516 0.512 4 7 6 
-0.04948435 0.008499881 0.511 4 7 6 
-0.04776669 0.008483248 0.5100001 6 6 6 
-0.0459649 0.00844998 0.508 6 6 6 
-0.04426313 0.008433347 0.507 6 6 6 
-0.04248359 0.008400078 0.505 6 6 6 
-0.04087865 0.008400078 0.505 10 10 10 
-0.03919595 0.008383445 0.504 10 10 10 
-0.0375942 0.008383445 0.504 11 11 11 
-0.03592103 0.008366811 0.503 12 12 12 
-0.03432246 0.008366811 0.503 12 12 12 
-0.03265883 0.008350177 0.502 12 12 12 
-0.03100155 0.008333543 0.501 12 12 12 
-0.02935063 0.008316909 0.5 13 13 13 
-0.02770607 0.008300276 0.499 12 12 12 
-0.02606786 0.008283642 0.498 16 15 15 
-0.02443601 0.008267008 0.497 16 15 15 
-0.0228565 0.008267008 0.497 17 16 16 
-0.02127699 0.008267008 0.497 19 19 15 
-0.01969749 0.008267008 0.497 23 20 17 
-0.01811798 0.008267008 0.497 25 22 19 
-0.01653847 0.008267008 0.497 32 24 21 
-0.01498907 0.008283642 0.498 47 32 31 
-0.01340638 0.008283642 0.498 65 50 49 
-0.0118237 0.008283642 0.498 88 73 72 
-0.01024101 0.008283642 0.498 99 87 85 
-0.008640939 0.008267008 0.497 102 90 88 
-0.007061433 0.008267008 0.497 103 91 89 
-0.005481927 0.008267008 0.497 109 94 93 
-0.00390242 0.008267008 0.497 112 95 95 
-0.002318239 0.008250374 0.496 113 96 96 
-0.0007419107 0.008250374 0.496 115 98 98 
0.0008327357 0.00823374 0.495 119 99 100 
0.002405886 0.00823374 0.495 119 99 100 
0.003979037 0.00823374 0.495 124 104 105 
0.005540971 0.008217107 0.494 129 109 110 
0.007110943 0.008217107 0.494 135 115 118 
0.008663343 0.008200473 0.493 140 120 123 
0.01023014 0.008200473 0.493 145 125 128 
0.01179693 0.008200473 0.493 148 130 136 
0.01336373 0.008200473 0.493 155 137 143 
0.01493052 0.008200473 0.493 157 141 148 
0.01649732 0.008200473 0.493 162 149 157 
0.01806411 0.008200473 0.493 160 147 155 
0.0196309 0.008200473 0.493 155 142 150 
0.0211977 0.008200473 0.493 162 150 161 
0.02276449 0.008200473 0.493 158 148 158 
0.02438064 0.008217107 0.494 157 145 158 
0.02600315 0.00823374 0.495 158 146 157 
0.0275763 0.00823374 0.495 146 129 141 
0.02920833 0.008250374 0.496 149 133 142 
0.03078466 0.008250374 0.496 129 111 119 
0.03242623 0.008267008 0.497 126 108 116 
0.03400574 0.008267008 0.497 136 118 126 
0.03565685 0.008283642 0.498 145 127 133 
0.03723953 0.008283642 0.498 168 147 154 
0.03890017 0.008300276 0.499 166 145 152 
0.04056717 0.008316909 0.5 171 150 157 
0.04224053 0.008333543 0.501 174 153 160 
0.04392023 0.008350177 0.502 176 154 158 
0.0456063 0.008366811 0.503 182 157 165 
0.04739257 0.008400078 0.505 188 167 174 
0.04919155 0.008433347 0.507 194 173 182 
0.05100324 0.008466613 0.509 195 174 183 
0.05282765 0.008499881 0.511 200 182 190 
0.05466476 0.008533149 0.513 209 191 199 
0.05640486 0.008549782 0.514 210 194 201 
0.05815131 0.008566417 0.515 207 191 196 
0.0601363 0.008616318 0.518 199 183 188 
0.06214036 0.008666219 0.521 191 169 173 
0.06416349 0.008716121 0.524 168 144 146 
0.06620569 0.008766023 0.527 149 122 125 
0.06813814 0.00879929 0.529 134 107 110 
0.07008332 0.008832558 0.531 122 100 102 
0.07204121 0.008865826 0.5330001 128 110 116 
0.0740118 0.008899093 0.535 154 141 147 
0.07585359 0.008915727 0.536 172 161 167 
0.07784644 0.008948995 0.538 173 164 169 
0.07955625 0.008948995 0.538 167 166 170 
0.08141711 0.008965628 0.539 151 161 168 
-0.1062752 0.009913235 0.544 22 37 52 
-0.1033932 0.009803898 0.538 19 26 32 
-0.1013054 0.009767451 0.536 10 18 19 
-0.0992303 0.009731007 0.534 5 13 12 
-0.09716792 0.00969456 0.532 4 10 8 
-0.09511824 0.009658115 0.53 6 9 8 
-0.09308127 0.009621669 0.528 4 7 6 
-0.09140324 0.009621669 0.528 4 7 6 
-0.08955529 0.009603446 0.527 4 7 6 
-0.08788043 0.009603446 0.527 4 7 6 
-0.08604201 0.009585223 0.526 4 7 6 
-0.08404955 0.009548778 0.524 4 7 6 
-0.08238423 0.009548778 0.524 3 6 5 
-0.08041082 0.009512331 0.522 3 6 5 
-0.078601 0.009494109 0.521 4 7 6 
-0.07679754 0.009475887 0.52 7 10 9 
-0.07500042 0.009457664 0.5190001 7 10 9 
-0.07320966 0.00943944 0.518 4 7 6 
-0.07142526 0.009421217 0.517 6 9 8 
-0.06964722 0.009402995 0.516 8 11 10 
-0.06800733 0.009402995 0.516 9 12 11 
-0.06623882 0.009384773 0.515 14 17 16 
-0.06460211 0.009384773 0.515 11 14 13 
-0.06296539 0.009384773 0.515 7 10 9 
-0.06120959 0.009366549 0.514 8 11 10 
-0.05957606 0.009366549 0.514 11 14 15 
-0.0578298 0.009348326 0.513 4 7 8 
-0.05619944 0.009348326 0.513 3 6 7 
-0.05456908 0.009348326 0.513 3 6 7 
-0.05293873 0.009348326 0.513 3 6 7 
-0.05120836 0.009330103 0.512 4 7 6 
-0.04958118 0.009330103 0.512 4 7 6 
-0.04776669 0.009293658 0.5100001 4 7 6 
-0.0459649 0.009257211 0.508 6 6 6 
-0.04426313 0.009238989 0.507 6 6 6 
-0.04256772 0.009220767 0.506 6 6 6 
-0.04087865 0.009202543 0.505 10 10 10 
-0.03919595 0.00918432 0.504 10 10 10 
-0.0375942 0.00918432 0.504 11 11 11 
-0.03592103 0.009166097 0.503 12 12 12 
-0.03432246 0.009166097 0.503 12 12 12 
-0.03265883 0.009147875 0.502 12 12 12 
-0.03100155 0.009129653 0.501 12 12 12 
-0.02935063 0.009111429 0.5 13 13 13 
-0.02770607 0.009093206 0.499 12 12 12 
-0.02606786 0.009074983 0.498 16 15 15 
-0.02448517 0.009074983 0.498 14 13 13 
-0.0228565 0.00905676 0.497 16 15 15 
-0.02127699 0.00905676 0.497 19 19 15 
-0.01969749 0.00905676 0.497 23 20 17 
-0.01811798 0.00905676 0.497 27 22 18 
-0.01657175 0.009074983 0.498 35 27 24 
-0.01498907 0.009074983 0.498 56 44 42 
-0.01340638 0.009074983 0.498 76 61 60 
-0.0118237 0.009074983 0.498 93 78 77 
-0.01024101 0.009074983 0.498 100 88 86 
-0.008658326 0.009074983 0.498 102 90 88 
-0.007061433 0.00905676 0.497 105 90 89 
-0.005481927 0.00905676 0.497 109 94 93 
-0.00390242 0.00905676 0.497 112 95 95 
-0.002318239 0.009038538 0.496 113 96 96 
-0.0007419107 0.009038538 0.496 115 98 98 
0.0008327357 0.009020315 0.495 117 97 98 
0.002405886 0.009020315 0.495 119 99 100 
0.003970998 0.009002091 0.494 123 103 104 
0.005540971 0.009002091 0.494 126 106 107 
0.007096549 0.008983869 0.493 133 113 116 
0.008663343 0.008983869 0.493 138 118 121 
0.01023014 0.008983869 0.493 144 124 127 
0.01179693 0.008983869 0.493 149 131 137 
0.01336373 0.008983869 0.493 154 136 142 
0.01490024 0.008965646 0.492 155 139 146 
0.01646385 0.008965646 0.492 158 145 151 
0.01802747 0.008965646 0.492 153 140 146 
0.0196309 0.008983869 0.493 148 135 143 
0.0211977 0.008983869 0.493 139 128 136 
0.02276449 0.008983869 0.493 139 128 136 
0.02438064 0.009002091 0.494 138 127 135 
0.02600315 0.009020315 0.495 138 125 133 
0.0275763 0.009020315 0.495 126 108 118 
0.02920833 0.009038538 0.496 123 107 114 
0.03078466 0.009038538 0.496 122 104 110 
0.03242623 0.00905676 0.497 115 97 105 
0.03400574 0.00905676 0.497 113 95 101 
0.03565685 0.009074983 0.498 124 103 110 
0.03731431 0.009093206 0.499 139 118 125 
0.03890017 0.009093206 0.499 154 131 139 
0.04056717 0.009111429 0.5 158 135 143 
0.04224053 0.009129653 0.501 160 137 145 
0.04392023 0.009147875 0.502 172 148 152 
0.0456063 0.009166097 0.503 179 152 157 
0.04739257 0.009202543 0.505 184 162 166 
0.04919155 0.009238989 0.507 190 169 176 
0.05100324 0.009275435 0.509 194 173 180 
0.05282765 0.009311881 0.511 198 180 188 
0.05466476 0.009348326 0.513 206 190 197 
0.05640486 0.009366549 0.514 211 195 202 
0.05815131 0.009384773 0.515 208 192 199 
0.0602524 0.009457664 0.5190001 197 181 186 
0.06225963 0.009512331 0.522 190 166 170 
0.06428594 0.009567001 0.525 166 139 144 
0.06633131 0.009621669 0.528 149 122 125 
0.06826695 0.009658115 0.53 141 114 117 
0.07021531 0.00969456 0.532 146 126 127 
0.07217637 0.009731007 0.534 163 145 151 
0.0740118 0.009749229 0.535 178 165 169 
0.07585359 0.009767451 0.536 178 167 173 
0.07784644 0.009803898 0.538 179 173 177 
0.07955625 0.009803898 0.538 183 182 186 
0.08141711 0.009822121 0.539 159 169 174 
-0.1033932 0.0106588 0.538 21 28 36 
-0.1013054 0.01061918 0.536 11 19 20 
-0.0992303 0.01057955 0.534 5 13 12 
-0.09716792 0.01053993 0.532 4 10 8 
-0.0952977 0.01052012 0.531 6 9 8 
-0.09325757 0.0104805 0.529 4 7 6 
-0.09140324 0.01046068 0.528 4 7 6 
-0.08972522 0.01046068 0.528 4 7 6 
-0.08788043 0.01044087 0.527 4 7 6 
-0.08604201 0.01042106 0.526 4 7 6 
-0.08420994 0.01040125 0.525 4 7 6 
-0.08238423 0.01038144 0.524 3 6 5 
-0.08056486 0.01036162 0.523 3 6 5 
-0.078601 0.010322 0.521 4 7 6 
-0.07679754 0.01030219 0.52 7 10 9 
-0.07500042 0.01028238 0.5190001 7 10 9 
-0.07320966 0.01026256 0.518 4 7 6 
-0.07156341 0.01026256 0.518 4 7 6 
-0.0697822 0.01024275 0.517 7 10 9 
-0.06800733 0.01022294 0.516 9 12 11 
-0.06636744 0.01022294 0.516 14 17 16 
-0.06460211 0.01020313 0.515 11 14 13 
-0.06296539 0.01020313 0.515 7 10 9 
-0.06120959 0.01018332 0.514 9 12 11 
-0.05957606 0.01018332 0.514 11 14 15 
-0.0578298 0.0101635 0.513 4 7 8 
-0.05619944 0.0101635 0.513 3 6 7 
-0.05456908 0.0101635 0.513 3 6 7 
-0.05293873 0.0101635 0.513 3 6 7 
-0.05120836 0.01014369 0.512 4 7 6 
-0.04958118 0.01014369 0.512 4 7 6 
-0.04776669 0.01010407 0.5100001 4 7 6 
-0.04605538 0.01008426 0.509 4 7 6 
-0.04426313 0.01004463 0.507 6 6 6 
-0.04256772 0.01002482 0.506 6 6 6 
-0.04087865 0.01000501 0.505 11 11 11 
-0.03919595 0.009985197 0.504 10 10 10 
-0.0375942 0.009985197 0.504 11 11 11 
-0.03592103 0.009965385 0.503 12 12 12 
-0.03425422 0.009945573 0.502 12 12 12 
-0.03265883 0.009945573 0.502 12 12 12 
-0.03100155 0.009925762 0.501 12 12 12 
-0.02935063 0.009905949 0.5 13 13 13 
-0.02770607 0.009886137 0.499 12 12 12 
-0.02606786 0.009866326 0.498 14 13 13 
-0.02448517 0.009866326 0.498 14 13 13 
-0.02290249 0.009866326 0.498 16 15 15 
-0.0213198 0.009866326 0.498 21 18 15 
-0.01973712 0.009866326 0.498 24 19 15 
-0.01815444 0.009866326 0.498 31 23 20 
-0.01657175 0.009866326 0.498 40 30 28 
-0.01498907 0.009866326 0.498 64 54 52 
-0.01340638 0.009866326 0.498 83 71 69 
-0.0118237 0.009866326 0.498 94 79 78 
-0.01024101 0.009866326 0.498 102 87 86 
-0.008658326 0.009866326 0.498 102 90 88 
-0.007061433 0.009846514 0.497 105 90 89 
-0.005481927 0.009846514 0.497 108 93 92 
-0.00390242 0.009846514 0.497 110 93 93 
-0.002318239 0.009826702 0.496 112 95 95 
-0.0007404149 0.00980689 0.495 114 97 97 
0.0008327357 0.00980689 0.495 116 96 97 
0.002401026 0.009787078 0.494 118 98 99 
0.003970998 0.009787078 0.494 122 102 103 
0.005529754 0.009767267 0.493 125 105 106 
0.007096549 0.009767267 0.493 131 111 114 
0.008663343 0.009767267 0.493 137 117 120 
0.01023014 0.009767267 0.493 142 121 128 
0.01179693 0.009767267 0.493 147 129 135 
0.01333662 0.009747454 0.492 152 134 140 
0.01490024 0.009747454 0.492 153 137 142 
0.01646385 0.009747454 0.492 148 135 139 
0.01802747 0.009747454 0.492 145 132 138 
0.0196309 0.009767267 0.493 133 120 126 
0.0211977 0.009767267 0.493 132 119 125 
0.02276449 0.009767267 0.493 127 114 122 
0.02438064 0.009787078 0.494 123 110 118 
0.02600315 0.00980689 0.495 125 112 120 
0.0275763 0.00980689 0.495 121 103 111 
0.02920833 0.009826702 0.496 113 95 101 
0.03084673 0.009846514 0.497 94 76 82 
0.03242623 0.009846514 0.497 101 80 87 
0.03400574 0.009846514 0.497 109 88 95 
0.03565685 0.009866326 0.498 111 90 97 
0.03731431 0.009886137 0.499 119 97 101 
0.03897813 0.009905949 0.5 136 112 116 
0.04064831 0.009925762 0.501 140 115 123 
0.04224053 0.009925762 0.501 147 122 130 
0.04392023 0.009945573 0.502 165 138 143 
0.0456063 0.009965385 0.503 177 150 155 
0.04739257 0.01000501 0.505 185 161 165 
0.04919155 0.01004463 0.507 189 167 171 
0.05100324 0.01008426 0.509 192 172 175 
0.05282765 0.01012388 0.511 193 175 181 
0.05466476 0.0101635 0.513 206 190 197 
0.05640486 0.01018332 0.514 212 196 203 
0.05815131 0.01020313 0.515 208 192 197 
0.0602524 0.01028238 0.5190001 198 181 183 
0.06225963 0.01034181 0.522 184 160 162 
0.06440839 0.01042106 0.526 165 138 143 
0.06645694 0.0104805 0.529 157 130 133 
0.06839576 0.01052012 0.531 166 142 144 
0.07021531 0.01053993 0.532 178 161 161 
0.07217637 0.01057955 0.534 185 169 174 
0.0740118 0.01059937 0.535 186 175 179 
0.07599511 0.01063899 0.537 185 176 179 
0.07784644 0.0106588 0.538 189 183 187 
0.07970412 0.01067861 0.539 185 185 187 
-0.1033932 0.01151371 0.538 22 28 39 
-0.1013054 0.0114709 0.536 12 19 23 
-0.0992303 0.0114281 0.534 5 13 10 
-0.09716792 0.0113853 0.532 4 10 8 
-0.0952977 0.0113639 0.531 4 7 6 
-0.09343386 0.0113425 0.53 4 7 6 
-0.09157636 0.0113211 0.529 4 7 6 
-0.08972522 0.0112997 0.528 4 7 6 
-0.08804718 0.0112997 0.528 4 7 6 
-0.08620559 0.01127829 0.527 4 7 6 
-0.08437034 0.0112569 0.526 3 6 5 
-0.08254145 0.01123549 0.525 3 6 5 
-0.08056486 0.01119269 0.523 3 6 5 
-0.07875186 0.01117129 0.522 4 7 6 
-0.07694522 0.01114989 0.521 7 10 9 
-0.07514492 0.01112849 0.52 7 10 9 
-0.073351 0.01110709 0.5190001 4 7 6 
-0.07156341 0.01108569 0.518 4 7 6 
-0.0697822 0.01106429 0.517 6 9 8 
-0.06800733 0.01104289 0.516 9 12 11 
-0.06636744 0.01104289 0.516 14 17 16 
-0.06460211 0.01102148 0.515 10 13 12 
-0.06296539 0.01102148 0.515 7 10 9 
-0.06120959 0.01100008 0.514 10 13 12 
-0.05946016 0.01097868 0.513 11 14 15 
-0.0578298 0.01097868 0.513 4 7 8 
-0.05619944 0.01097868 0.513 3 6 7 
-0.05456908 0.01097868 0.513 4 7 8 
-0.05293873 0.01097868 0.513 3 6 7 
-0.05120836 0.01095728 0.512 4 7 6 
-0.04958118 0.01095728 0.512 4 7 6 
-0.04786035 0.01093588 0.511 4 7 6 
-0.04605538 0.01089308 0.509 4 7 6 
-0.04426313 0.01085028 0.507 4 7 6 
-0.04256772 0.01082888 0.506 6 6 6 
-0.04087865 0.01080747 0.505 11 11 11 
-0.03919595 0.01078607 0.504 10 10 10 
-0.0375942 0.01078607 0.504 11 11 11 
-0.03592103 0.01076467 0.503 12 12 12 
-0.03425422 0.01074327 0.502 11 11 11 
-0.03265883 0.01074327 0.502 11 11 11 
-0.03100155 0.01072187 0.501 11 11 11 
-0.02935063 0.01070047 0.5 12 12 12 
-0.02770607 0.01067907 0.499 13 12 12 
-0.0261202 0.01067907 0.499 14 13 13 
-0.02448517 0.01065767 0.498 14 13 13 
-0.02290249 0.01065767 0.498 16 16 12 
-0.0213198 0.01065767 0.498 21 18 15 
-0.01973712 0.01065767 0.498 26 21 17 
-0.01815444 0.01065767 0.498 37 27 25 
-0.01660503 0.01067907 0.499 50 40 38 
-0.01501916 0.01067907 0.499 68 58 56 
-0.0134333 0.01067907 0.499 85 73 71 
-0.01184744 0.01067907 0.499 95 80 79 
-0.01024101 0.01065767 0.498 102 87 86 
-0.008658326 0.01065767 0.498 105 90 89 
-0.007061433 0.01063627 0.497 105 90 89 
-0.005481927 0.01063627 0.497 107 92 91 
-0.00390242 0.01063627 0.497 109 92 92 
-0.002318239 0.01061487 0.496 112 95 95 
-0.0007404149 0.01059347 0.495 113 96 96 
0.0008327357 0.01059347 0.495 114 94 95 
0.002401026 0.01057206 0.494 117 97 98 
0.003970998 0.01057206 0.494 121 101 102 
0.005529754 0.01055066 0.493 124 104 107 
0.007096549 0.01055066 0.493 130 110 113 
0.008663343 0.01055066 0.493 137 117 120 
0.01020939 0.01052926 0.492 139 118 125 
0.011773 0.01052926 0.492 144 126 132 
0.01333662 0.01052926 0.492 150 132 138 
0.01490024 0.01052926 0.492 150 134 139 
0.01646385 0.01052926 0.492 135 119 126 
0.01802747 0.01052926 0.492 127 111 118 
0.0196309 0.01055066 0.493 120 104 111 
0.0211977 0.01055066 0.493 118 102 111 
0.02281067 0.01057206 0.494 121 105 114 
0.02438064 0.01057206 0.494 116 103 111 
0.02600315 0.01059347 0.495 113 100 106 
0.02763201 0.01061487 0.496 114 96 102 
0.02920833 0.01061487 0.496 106 88 94 
0.03084673 0.01063627 0.497 95 74 81 
0.03242623 0.01063627 0.497 89 68 75 
0.03407416 0.01065767 0.498 90 67 75 
0.03572845 0.01067907 0.499 106 82 86 
0.03731431 0.01067907 0.499 112 88 92 
0.03897813 0.01070047 0.5 128 101 106 
0.04064831 0.01072187 0.501 142 115 120 
0.04232484 0.01074327 0.502 149 122 127 
0.04400772 0.01076467 0.503 159 132 137 
0.04569697 0.01078607 0.504 169 142 147 
0.04739257 0.01080747 0.505 178 154 158 
0.04919155 0.01085028 0.507 184 162 166 
0.05100324 0.01089308 0.509 190 168 172 
0.05282765 0.01093588 0.511 192 174 180 
0.05466476 0.01097868 0.513 204 188 195 
0.05640486 0.01100008 0.514 211 195 202 
0.05815131 0.01102148 0.515 208 192 197 
0.06036849 0.01112849 0.52 195 178 180 
0.0623789 0.01119269 0.523 177 153 155 
0.06453083 0.01127829 0.527 168 141 144 
0.06658258 0.0113425 0.53 170 146 148 
0.06839576 0.0113639 0.531 179 159 160 
0.07034729 0.0114067 0.5330001 190 175 176 
0.07231153 0.0114495 0.535 192 180 180 
0.07415015 0.0114709 0.536 194 183 187 
0.07613663 0.01151371 0.538 193 184 187 
0.07799113 0.01153511 0.539 193 187 191 
0.07970412 0.01153511 0.539 190 189 191 
-0.1033932 0.01236861 0.538 25 31 42 
-0.1013054 0.01232263 0.536 12 19 23 
-0.09941613 0.01229964 0.535 6 14 11 
-0.09735057 0.01225366 0.5330001 4 10 8 
-0.09547717 0.01223067 0.532 4 7 6 
-0.09361015 0.01220768 0.531 4 7 6 
-0.09174947 0.01218469 0.53 4 7 6 
-0.08989516 0.0121617 0.529 4 7 6 
-0.08821395 0.0121617 0.529 6 9 8 
-0.08636916 0.01213871 0.528 4 7 6 
-0.08453074 0.01211572 0.527 3 6 5 
-0.08269867 0.01209273 0.526 3 6 5 
-0.08071892 0.01204675 0.524 3 6 5 
-0.07875186 0.01200077 0.522 4 7 6 
-0.07694522 0.01197778 0.521 7 10 9 
-0.07514492 0.01195479 0.52 7 10 9 
-0.073351 0.0119318 0.5190001 4 7 6 
-0.07156341 0.01190881 0.518 3 6 5 
-0.06991716 0.01190881 0.518 6 9 8 
-0.06813912 0.01188582 0.517 8 11 10 
-0.06636744 0.01186283 0.516 13 16 15 
-0.06460211 0.01183984 0.515 10 13 12 
-0.06296539 0.01183984 0.515 8 11 10 
-0.06120959 0.01181685 0.514 11 14 13 
-0.05946016 0.01179386 0.513 11 14 13 
-0.0578298 0.01179386 0.513 4 7 8 
-0.05619944 0.01179386 0.513 3 6 7 
-0.05446271 0.01177087 0.512 4 7 8 
-0.05283554 0.01177087 0.512 3 6 7 
-0.05120836 0.01177087 0.512 4 7 6 
-0.04958118 0.01177087 0.512 4 7 6 
-0.04786035 0.01174788 0.511 4 7 6 
-0.04614586 0.01172489 0.5100001 4 7 6 
-0.04435043 0.01167891 0.508 6 9 8 
-0.04265184 0.01165592 0.507 4 7 6 
-0.04095961 0.01163293 0.506 10 10 10 
-0.03927372 0.01160994 0.505 10 10 10 
-0.0375942 0.01158695 0.504 11 11 11 
-0.03592103 0.01156396 0.503 11 11 11 
-0.03432246 0.01156396 0.503 11 11 11 
-0.03265883 0.01154097 0.502 11 11 11 
-0.03100155 0.01151798 0.501 11 11 11 
-0.02935063 0.01149499 0.5 12 12 12 
-0.02776159 0.01149499 0.5 13 12 12 
-0.0261202 0.011472 0.499 13 12 12 
-0.02453434 0.011472 0.499 14 14 10 
-0.02294848 0.011472 0.499 16 16 12 
-0.02136261 0.011472 0.499 21 18 13 
-0.01977675 0.011472 0.499 31 23 20 
-0.01819089 0.011472 0.499 50 38 36 
-0.01660503 0.011472 0.499 61 49 47 
-0.01501916 0.011472 0.499 73 63 61 
-0.0134333 0.011472 0.499 88 73 74 
-0.01184744 0.011472 0.499 95 80 79 
-0.01026158 0.011472 0.499 101 86 85 
-0.008658326 0.01144901 0.498 102 87 86 
-0.007075641 0.01144901 0.498 104 89 88 
-0.005481927 0.01142602 0.497 105 90 89 
-0.00390242 0.01142602 0.497 107 90 90 
-0.002318239 0.01140303 0.496 109 92 92 
-0.0007404149 0.01138004 0.495 112 95 95 
0.0008327357 0.01138004 0.495 114 94 95 
0.002401026 0.01135705 0.494 116 96 97 
0.00396296 0.01133406 0.493 119 99 100 
0.005529754 0.01133406 0.493 124 104 107 
0.007096549 0.01133406 0.493 130 110 113 
0.00864577 0.01131107 0.492 137 117 120 
0.01020939 0.01131107 0.492 137 116 123 
0.011773 0.01131107 0.492 141 123 129 
0.01333662 0.01131107 0.492 143 125 131 
0.01490024 0.01131107 0.492 136 118 126 
0.01646385 0.01131107 0.492 118 97 106 
0.01802747 0.01131107 0.492 110 89 98 
0.01959108 0.01131107 0.492 112 94 102 
0.0211977 0.01133406 0.493 111 95 102 
0.02281067 0.01135705 0.494 111 95 102 
0.02443 0.01138004 0.495 114 98 105 
0.02600315 0.01138004 0.495 109 93 100 
0.02763201 0.01140303 0.496 106 88 94 
0.02926722 0.01142602 0.497 101 80 87 
0.03084673 0.01142602 0.497 90 69 76 
0.03242623 0.01142602 0.497 88 67 74 
0.03407416 0.01144901 0.498 88 65 73 
0.03572845 0.011472 0.499 99 75 79 
0.03738909 0.01149499 0.5 108 84 86 
0.03905609 0.01151798 0.501 121 94 97 
0.04072944 0.01154097 0.502 137 108 112 
0.04240915 0.01156396 0.503 143 116 119 
0.04409521 0.01158695 0.504 154 127 130 
0.04578763 0.01160994 0.505 164 137 140 
0.04758026 0.01165592 0.507 177 150 155 
0.04928857 0.01167891 0.508 183 159 163 
0.05110345 0.01172489 0.5100001 188 166 170 
0.05282765 0.01174788 0.511 192 174 180 
0.05466476 0.01179386 0.513 203 187 194 
0.05640486 0.01181685 0.514 211 195 202 
0.05826423 0.01186283 0.516 208 192 197 
0.06036849 0.01195479 0.52 196 176 179 
0.06249818 0.01204675 0.524 178 154 156 
0.06465328 0.01213871 0.528 174 151 150 
0.06658258 0.01218469 0.53 179 158 157 
0.06852456 0.01223067 0.532 186 170 167 
0.07047927 0.01227665 0.534 192 180 178 
0.07231153 0.01229964 0.535 196 184 184 
0.07428848 0.01234562 0.537 198 185 189 
0.07627815 0.0123916 0.539 196 185 189 
0.07799113 0.0123916 0.539 198 189 192 
0.07985199 0.01241459 0.54 193 192 194 
-0.1033932 0.01322351 0.538 25 34 44 
-0.1013054 0.01317436 0.536 12 19 23 
-0.09941613 0.01314978 0.535 6 14 11 
-0.09753321 0.0131252 0.534 4 10 8 
-0.09565665 0.01310062 0.5330001 4 7 6 
-0.09378643 0.01307604 0.532 4 7 6 
-0.09192258 0.01305146 0.531 3 6 5 
-0.09023502 0.01305146 0.531 4 7 6 
-0.0883807 0.01302688 0.53 6 9 8 
-0.08653275 0.0130023 0.529 4 7 6 
-0.08469114 0.01297772 0.528 3 6 5 
-0.08269867 0.01292857 0.526 3 6 5 
-0.08087296 0.01290399 0.525 3 6 5 
-0.07890272 0.01285483 0.523 6 9 8 
-0.07694522 0.01280567 0.521 7 10 9 
-0.07514492 0.01278109 0.52 6 9 8 
-0.073351 0.01275651 0.5190001 4 7 6 
-0.07170157 0.01275651 0.5190001 3 6 5 
-0.06991716 0.01273193 0.518 4 7 6 
-0.06813912 0.01270735 0.517 8 11 10 
-0.06636744 0.01268278 0.516 13 16 15 
-0.06460211 0.0126582 0.515 10 13 12 
-0.06284313 0.01263362 0.514 8 11 10 
-0.06120959 0.01263362 0.514 13 16 15 
-0.05946016 0.01260904 0.513 11 14 13 
-0.0578298 0.01260904 0.513 4 7 6 
-0.05608989 0.01258446 0.512 3 6 5 
-0.05446271 0.01258446 0.512 4 7 6 
-0.05283554 0.01258446 0.512 3 6 5 
-0.05120836 0.01258446 0.512 4 7 6 
-0.04958118 0.01258446 0.512 4 7 6 
-0.04786035 0.01255988 0.511 4 7 6 
-0.04614586 0.0125353 0.5100001 4 7 6 
-0.04435043 0.01248614 0.508 6 9 8 
-0.04265184 0.01246156 0.507 4 7 6 
-0.04095961 0.01243699 0.506 10 10 10 
-0.03927372 0.01241241 0.505 9 9 9 
-0.0375942 0.01238783 0.504 11 11 11 
-0.03599245 0.01238783 0.504 11 11 11 
-0.03432246 0.01236325 0.503 11 11 11 
-0.03265883 0.01233867 0.502 11 11 11 
-0.03100155 0.01231409 0.501 11 11 11 
-0.02940933 0.01231409 0.501 11 11 11 
-0.02776159 0.01228951 0.5 12 11 11 
-0.02617255 0.01228951 0.5 13 12 12 
-0.02453434 0.01226493 0.499 13 13 9 
-0.02294848 0.01226493 0.499 16 16 12 
-0.02136261 0.01226493 0.499 23 20 15 
-0.01977675 0.01226493 0.499 37 27 25 
-0.01819089 0.01226493 0.499 56 44 42 
-0.01660503 0.01226493 0.499 67 55 53 
-0.01501916 0.01226493 0.499 78 66 64 
-0.0134333 0.01226493 0.499 90 75 74 
-0.01184744 0.01226493 0.499 94 79 78 
-0.01026158 0.01226493 0.499 101 86 85 
-0.008658326 0.01224035 0.498 101 86 85 
-0.007075641 0.01224035 0.498 104 89 88 
-0.005481927 0.01221577 0.497 104 89 88 
-0.00390242 0.01221577 0.497 106 91 90 
-0.002318239 0.0121912 0.496 107 90 90 
-0.0007404149 0.01216662 0.495 112 95 95 
0.0008310534 0.01214204 0.494 109 92 92 
0.002401026 0.01214204 0.494 112 95 95 
0.00396296 0.01211746 0.493 116 99 101 
0.005529754 0.01211746 0.493 124 104 107 
0.007082154 0.01209288 0.492 128 111 113 
0.00864577 0.01209288 0.492 134 116 122 
0.01018864 0.0120683 0.491 134 116 122 
0.01174907 0.0120683 0.491 136 118 124 
0.01330951 0.0120683 0.491 138 117 124 
0.01486995 0.0120683 0.491 116 93 103 
0.01643039 0.0120683 0.491 113 90 102 
0.01802747 0.01209288 0.492 110 89 100 
0.01959108 0.01209288 0.492 110 92 100 
0.0211977 0.01211746 0.493 109 93 100 
0.02281067 0.01214204 0.494 108 92 99 
0.02443 0.01216662 0.495 112 96 103 
0.02605568 0.0121912 0.496 109 93 100 
0.02763201 0.0121912 0.496 103 85 91 
0.02926722 0.01221577 0.497 100 79 86 
0.03084673 0.01221577 0.497 90 67 75 
0.03249148 0.01224035 0.498 91 71 74 
0.03407416 0.01224035 0.498 88 68 71 
0.03572845 0.01226493 0.499 101 79 81 
0.03738909 0.01228951 0.5 107 83 85 
0.03913404 0.01233867 0.502 120 94 94 
0.04081057 0.01236325 0.503 128 99 103 
0.04249346 0.01238783 0.504 141 112 116 
0.0441827 0.01241241 0.505 150 123 126 
0.04587831 0.01243699 0.506 161 134 137 
0.04758026 0.01246156 0.507 173 146 149 
0.0493856 0.01251072 0.509 180 153 158 
0.05110345 0.0125353 0.5100001 184 162 166 
0.05282765 0.01255988 0.511 193 172 179 
0.05466476 0.01260904 0.513 203 187 194 
0.05640486 0.01263362 0.514 211 195 202 
0.05826423 0.01268278 0.516 211 193 199 
0.06048458 0.01280567 0.521 194 174 175 
0.06261745 0.01290399 0.525 179 155 157 
0.06465328 0.01297772 0.528 180 159 158 
0.0667082 0.01305146 0.531 182 163 161 
0.06865337 0.01310062 0.5330001 191 175 172 
0.07047927 0.0131252 0.534 192 180 178 
0.07244669 0.01317436 0.536 197 185 185 
0.07442683 0.01322351 0.538 199 187 187 
0.07627815 0.01324809 0.539 197 187 187 
0.07813583 0.01327267 0.54 200 191 194 
0.07985199 0.01327267 0.54 194 193 193 
-0.09960195 0.01402608 0.536 6 14 13 
-0.09753321 0.01397375 0.534 5 11 9 
-0.09565665 0.01394758 0.5330001 4 7 6 
-0.09378643 0.01392141 0.532 4 7 6 
-0.09209569 0.01392141 0.532 3 6 5 
-0.09040496 0.01392141 0.532 4 7 6 
-0.08854746 0.01389524 0.531 6 9 8 
-0.08669633 0.01386907 0.53 4 7 6 
-0.08485155 0.01384291 0.529 3 6 5 
-0.08301311 0.01381674 0.528 3 6 5 
-0.08087296 0.01373823 0.525 3 6 5 
-0.07890272 0.0136859 0.523 6 9 8 
-0.07709291 0.01365973 0.522 7 10 9 
-0.07528944 0.01363356 0.521 6 9 8 
-0.07349233 0.01360739 0.52 4 7 6 
-0.07170157 0.01358123 0.5190001 3 6 5 
-0.06991716 0.01355506 0.518 4 7 6 
-0.06813912 0.01352889 0.517 8 11 10 
-0.06636744 0.01350272 0.516 13 16 15 
-0.06460211 0.01347655 0.515 9 12 11 
-0.06284313 0.01345038 0.514 9 12 11 
-0.06109051 0.01342422 0.513 13 16 15 
-0.05946016 0.01342422 0.513 10 13 12 
-0.05771707 0.01339805 0.512 4 7 6 
-0.05608989 0.01339805 0.512 3 6 5 
-0.05446271 0.01339805 0.512 4 7 6 
-0.05283554 0.01339805 0.512 4 7 6 
-0.05120836 0.01339805 0.512 6 9 8 
-0.04948435 0.01337188 0.511 6 9 8 
-0.04786035 0.01337188 0.511 4 7 6 
-0.04614586 0.01334571 0.5100001 4 7 6 
-0.04443773 0.01331954 0.509 7 10 9 
-0.04265184 0.01326721 0.507 4 7 6 
-0.04095961 0.01324104 0.506 10 10 10 
-0.03927372 0.01321487 0.505 9 9 9 
-0.0375942 0.0131887 0.504 11 11 11 
-0.03599245 0.0131887 0.504 11 11 11 
-0.03432246 0.01316254 0.503 11 11 11 
-0.03265883 0.01313637 0.502 11 11 11 
-0.03106343 0.01313637 0.502 10 10 10 
-0.02940933 0.0131102 0.501 11 11 11 
-0.02781712 0.0131102 0.501 12 11 11 
-0.02617255 0.01308403 0.5 13 13 9 
-0.02458351 0.01308403 0.5 13 13 9 
-0.02299447 0.01308403 0.5 17 17 13 
-0.02140542 0.01308403 0.5 27 22 18 
-0.01981638 0.01308403 0.5 46 34 32 
-0.01822734 0.01308403 0.5 63 52 47 
-0.0166383 0.01308403 0.5 74 63 58 
-0.01504926 0.01308403 0.5 83 71 69 
-0.01346022 0.01308403 0.5 90 75 74 
