ply
format ascii 1.0
element vertex 1220
property float32 x
property float32 y
property float32 z
property uchar red
property uchar green
property uchar blue
end_header
0.02018837 0.1792298 0.507 169 167 178 
0.02354948 0.1802904 0.5100001 175 173 184 
0.02700124 0.1817044 0.514 176 175 186 
0.03038609 0.1824114 0.516 172 174 184 
0.03373111 0.1827649 0.517 173 175 185 
0.03708885 0.1831184 0.518 179 178 189 
0.06556121 0.2973023 0.841 171 172 185 
0.07073813 0.2965953 0.839 22 32 46 
0.07598028 0.2962418 0.8380001 34 48 54 
0.08120971 0.2958883 0.837 29 36 40 
0.08632307 0.2951813 0.835 27 34 38 
0.09075256 0.2923532 0.827 25 32 36 
0.09391943 0.28599 0.809 32 39 45 
0.09649014 0.2785663 0.788 62 62 84 
0.09969551 0.2736171 0.774 89 96 120 
0.1032636 0.2700821 0.7640001 162 177 201 
0.1072706 0.267961 0.758 169 191 217 
0.111497 0.2665469 0.754 183 206 241 
0.1159811 0.2658399 0.752 199 225 254 
0.120761 0.2658399 0.752 197 223 252 
0.1253739 0.2654864 0.751 192 220 251 
0.1303206 0.2658399 0.752 176 196 234 
0.1351005 0.2658399 0.752 188 212 253 
0.1398803 0.2658399 0.752 204 231 255 
0.1444678 0.2654864 0.751 214 247 251 
0.1488438 0.2647794 0.749 219 246 255 
0.1533995 0.2644259 0.748 193 216 251 
0.1581539 0.2644259 0.748 197 223 250 
0.1633439 0.2651329 0.7500001 217 246 254 
0.1687835 0.2661934 0.753 247 255 254 
0.1740307 0.2669004 0.7550001 249 255 254 
0.1793033 0.2676075 0.757 238 255 252 
0.1846014 0.2683145 0.7590001 212 240 255 
0.188677 0.267254 0.756 166 187 206 
0.1927144 0.2661934 0.753 165 187 209 
0.1964515 0.2647794 0.749 162 184 206 
0.2004063 0.2637188 0.7460001 156 178 200 
0.204323 0.2626583 0.743 148 170 192 
0.2079202 0.2612443 0.739 141 161 183 
0.2111789 0.2594767 0.734 148 170 194 
0.2149621 0.2584162 0.731 171 192 221 
0.2190076 0.2577092 0.729 176 199 234 
0.2236413 0.2577092 0.729 181 205 248 
0.2282749 0.2577092 0.729 186 209 255 
0.2325891 0.2573557 0.728 188 212 253 
0.2372164 0.2573557 0.728 184 211 251 
0.2415114 0.2570021 0.7270001 185 212 252 
0.2457938 0.2566486 0.726 193 224 251 
0.2504084 0.2566486 0.726 215 255 255 
0.255023 0.2566486 0.726 224 255 253 
0.2599952 0.2570021 0.7270001 227 255 253 
0.2646161 0.2570021 0.7270001 231 255 255 
0.269237 0.2570021 0.7270001 226 255 253 
0.273858 0.2570021 0.7270001 229 255 255 
0.2788619 0.2573557 0.728 227 255 253 
0.2838786 0.2577092 0.729 231 255 255 
0.2893038 0.2584162 0.731 227 255 253 
0.2943523 0.2587697 0.7320001 222 255 252 
0.299005 0.2587697 0.7320001 224 255 253 
0.3040726 0.2591232 0.733 219 255 251 
0.3091528 0.2594767 0.734 232 255 255 
0.3138182 0.2594767 0.734 237 255 255 
0.3189175 0.2598302 0.735 220 254 249 
0.3235893 0.2598302 0.735 219 255 253 
0.3291544 0.2605373 0.737 220 255 254 
0.3338389 0.2605373 0.737 224 255 253 
0.339442 0.2612443 0.739 224 255 253 
0.3446048 0.2615978 0.74 227 255 253 
0.3502525 0.2623048 0.742 235 255 255 
0.3549688 0.2623048 0.742 237 255 252 
0.3606545 0.2630118 0.744 242 255 254 
0.3658747 0.2633654 0.7450001 247 255 255 
0.3716049 0.2640724 0.747 249 255 254 
-0.2644091 0.2698756 0.7600001 0 4 2 
-0.2592369 0.2695206 0.7590001 14 30 38 
-0.2527366 0.267745 0.754 12 30 37 
-0.2449845 0.2645492 0.7450001 8 25 30 
-0.2370243 0.2609982 0.735 5 16 16 
-0.2279268 0.2560268 0.721 5 16 16 
-0.2196268 0.2517656 0.7090001 5 18 17 
-0.2126929 0.2489248 0.701 14 28 34 
-0.206752 0.2471493 0.696 18 36 45 
-0.201456 0.246084 0.693 25 42 56 
-0.1967668 0.2457289 0.692 44 65 84 
-0.1920903 0.2453738 0.691 56 78 100 
-0.1882415 0.246084 0.693 54 79 100 
-0.1843672 0.2467942 0.6950001 54 79 100 
-0.1804675 0.2475044 0.697 55 80 101 
-0.176795 0.2485697 0.7 54 81 101 
-0.1730843 0.249635 0.703 57 82 103 
-0.1698152 0.2514105 0.708 57 82 103 
-0.165782 0.2521207 0.71 59 84 105 
-0.1617234 0.2528309 0.712 61 86 109 
-0.1576394 0.2535411 0.714 65 92 114 
-0.1537444 0.2546064 0.717 65 95 116 
-0.1498112 0.2556717 0.72 63 93 114 
-0.1460416 0.2570921 0.724 65 95 116 
-0.1420258 0.2581574 0.7270001 62 94 114 
-0.1377829 0.2588676 0.729 64 96 116 
-0.1333319 0.2592227 0.73 63 95 115 
-0.1290445 0.2599329 0.7320001 65 97 117 
-0.1249016 0.2609982 0.735 65 97 117 
-0.1207205 0.2620635 0.738 65 97 117 
-0.1168158 0.2638389 0.743 66 98 118 
-0.1128475 0.2656144 0.748 68 98 119 
-0.1086711 0.2670349 0.752 66 96 117 
-0.1038913 0.2670349 0.752 64 96 116 
-0.09924325 0.26739 0.753 66 96 117 
-0.09483338 0.2684553 0.756 67 97 118 
-0.09038538 0.2695206 0.7590001 65 95 116 
-0.08601196 0.270941 0.763 64 94 115 
-0.08158769 0.2723613 0.767 63 93 114 
-0.07711259 0.2737817 0.771 62 94 114 
-0.07268029 0.2755572 0.776 63 95 115 
-0.06800982 0.2766225 0.779 65 95 116 
-0.06322026 0.2773328 0.781 68 98 121 
-0.01950326 0.1899783 0.535 78 108 131 
-0.01601242 0.188913 0.532 71 101 120 
-0.01251222 0.1871375 0.527 39 44 53 
-0.009110368 0.1860722 0.524 32 32 34 
-0.005757677 0.185362 0.522 36 36 36 
-0.002421064 0.1839416 0.518 55 49 51 
0.0008596524 0.1814559 0.511 75 69 73 
0.00406746 0.1796804 0.506 95 89 93 
0.007269284 0.1793253 0.505 112 108 113 
0.01047915 0.1793253 0.505 127 122 130 
0.01368901 0.1793253 0.505 140 135 143 
0.01693234 0.1796804 0.506 156 151 161 
0.02022819 0.1803906 0.508 169 167 178 
0.02364183 0.181811 0.512 175 173 184 
0.02705378 0.1828763 0.515 176 175 186 
0.03044498 0.1835865 0.517 174 173 184 
0.03379636 0.1839416 0.518 175 174 185 
0.03716045 0.1842967 0.5190001 179 178 189 
0.06563918 0.2989938 0.8420001 154 152 168 
0.07090675 0.2986387 0.841 20 32 46 
0.07616161 0.2982836 0.84 31 45 51 
0.08140377 0.2979285 0.839 28 35 39 
0.08642644 0.2968632 0.836 26 33 37 
0.09075256 0.2936673 0.827 24 31 35 
0.09403553 0.2876306 0.8100001 32 37 42 
0.09649014 0.2798184 0.788 64 62 78 
0.09956671 0.274492 0.7730001 89 89 109 
0.1031284 0.270941 0.763 120 124 149 
0.1071291 0.2688104 0.757 170 190 214 
0.1113492 0.26739 0.753 194 219 253 
0.1158269 0.2666798 0.751 201 227 254 
0.1204398 0.2663247 0.7500001 194 219 251 
0.1252069 0.2663247 0.7500001 195 223 254 
0.1301473 0.2666798 0.751 182 205 240 
0.1349208 0.2666798 0.751 187 209 253 
0.1396943 0.2666798 0.751 204 231 255 
0.144083 0.2659695 0.749 216 249 253 
0.1486451 0.2656144 0.748 220 248 254 
0.1531944 0.2652594 0.747 188 213 247 
0.1579425 0.2652594 0.747 197 223 252 
0.1631261 0.2659695 0.749 219 247 253 
0.1685593 0.2670349 0.752 247 255 254 
0.1738002 0.267745 0.754 249 255 254 
0.1790664 0.2684553 0.756 232 255 251 
0.1843581 0.2691655 0.758 209 237 254 
0.188677 0.2684553 0.756 163 185 207 
0.1927144 0.26739 0.753 165 187 209 
0.1961892 0.2656144 0.748 161 183 205 
0.2001377 0.2645492 0.7450001 153 175 197 
0.204323 0.2638389 0.743 148 168 190 
0.2076389 0.2620635 0.738 141 161 183 
0.2111789 0.2606431 0.734 153 178 201 
0.2146681 0.2592227 0.73 173 197 225 
0.2190076 0.2588676 0.729 174 197 232 
0.2236413 0.2588676 0.729 179 203 244 
0.2279618 0.2585125 0.728 186 209 255 
0.2325891 0.2585125 0.728 186 210 253 
0.2368905 0.2581574 0.7270001 183 210 252 
0.2411792 0.2578022 0.726 184 211 253 
0.2454553 0.2574472 0.725 191 221 253 
0.2500635 0.2574472 0.725 215 255 255 
0.2546717 0.2574472 0.725 219 255 253 
0.2592799 0.2574472 0.725 226 255 253 
0.2638882 0.2574472 0.725 229 255 255 
0.2684964 0.2574472 0.725 226 255 253 
0.2731045 0.2574472 0.725 227 255 253 
0.2780958 0.2578022 0.726 227 255 253 
0.2834892 0.2585125 0.728 232 255 255 
0.2885123 0.2588676 0.729 226 255 253 
0.2939501 0.2595778 0.731 223 255 253 
0.2985965 0.2595778 0.731 223 255 252 
0.3036577 0.2599329 0.7320001 219 255 251 
0.3083104 0.2599329 0.7320001 232 255 255 
0.3133907 0.260288 0.733 237 255 255 
0.3180498 0.260288 0.733 213 249 245 
0.3227088 0.260288 0.733 219 255 253 
0.3282611 0.2609982 0.735 220 255 254 
0.3333859 0.2613533 0.7360001 226 255 253 
0.3385233 0.2617084 0.737 224 255 253 
0.3436735 0.2620635 0.738 229 255 255 
0.3493084 0.2627737 0.74 235 255 255 
0.3544904 0.2631288 0.7410001 241 255 253 
0.3596851 0.2634839 0.742 242 255 254 
0.3653835 0.264194 0.744 247 255 255 
0.37061 0.2645492 0.7450001 249 255 254 
-0.2640612 0.2707267 0.7590001 0 4 2 
-0.2592369 0.2707267 0.7590001 14 30 38 
-0.2527366 0.2689432 0.754 12 30 37 
-0.2449845 0.265733 0.7450001 10 27 32 
-0.2370243 0.2621661 0.735 4 15 15 
-0.2276106 0.2568158 0.72 4 15 15 
-0.219317 0.2525355 0.708 5 18 17 
-0.2120861 0.2493253 0.6990001 16 30 36 
-0.2064549 0.2478986 0.6950001 16 34 41 
-0.201456 0.2471852 0.693 25 40 55 
-0.1964824 0.2464718 0.691 47 65 88 
-0.1920903 0.2464718 0.691 56 78 100 
-0.1879699 0.2468285 0.692 55 77 99 
-0.184102 0.2475419 0.694 55 77 99 
-0.1804675 0.2486119 0.697 57 79 101 
-0.176795 0.249682 0.7 55 80 101 
-0.1730843 0.2507521 0.703 57 82 103 
-0.1695753 0.2521788 0.707 57 82 103 
-0.165782 0.2532489 0.71 59 84 105 
-0.1617234 0.2539622 0.712 61 86 109 
-0.1576394 0.2546757 0.714 65 92 114 
-0.1535299 0.255389 0.716 65 95 116 
-0.1496031 0.2564591 0.719 63 93 114 
-0.1458399 0.2578858 0.723 65 95 116 
-0.1418305 0.2589559 0.726 62 94 114 
-0.1377829 0.260026 0.729 63 95 115 
-0.1333319 0.2603827 0.73 65 95 116 
-0.1288682 0.2607393 0.731 66 96 117 
-0.1247317 0.2618094 0.734 66 96 117 
-0.120557 0.2628795 0.737 65 97 117 
-0.1166586 0.2646629 0.742 66 98 118 
-0.1126966 0.2664464 0.747 68 98 121 
-0.1085266 0.2678731 0.751 66 96 119 
-0.1038913 0.2682298 0.752 65 95 116 
-0.09924325 0.2685865 0.753 66 96 117 
-0.09483338 0.2696566 0.756 67 97 118 
-0.09050446 0.2710833 0.7600001 65 95 116 
-0.08623742 0.2728668 0.765 62 94 116 
-0.08148132 0.2732235 0.766 65 92 116 
-0.07681254 0.2739368 0.768 61 91 114 
-0.07221199 0.2750069 0.771 64 94 117 
-0.06774791 0.2767903 0.776 64 96 118 
-0.02124316 0.1911851 0.536 74 106 128 
-0.01780299 0.1908284 0.535 72 104 126 
-0.01255971 0.1886883 0.529 39 44 51 
-0.00914514 0.1876182 0.526 32 32 34 
-0.005779738 0.1869048 0.524 36 36 36 
-0.002421064 0.1847647 0.518 52 51 51 
0.0008562877 0.1815545 0.509 75 69 73 
0.00406746 0.1804844 0.506 95 89 93 
0.007269284 0.1801277 0.505 114 108 114 
0.01047915 0.1801277 0.505 128 122 128 
0.01368901 0.1801277 0.505 140 133 142 
0.01693234 0.1804844 0.506 158 151 162 
0.02022819 0.1811978 0.508 169 167 178 
0.02364183 0.1826245 0.512 177 175 186 
0.02700124 0.1833379 0.514 179 178 189 
0.03038609 0.1840513 0.516 176 175 186 
0.03379636 0.1847647 0.518 177 175 186 
0.03730365 0.1858348 0.521 180 178 189 
0.065951 0.3017585 0.846 132 130 146 
0.071244 0.3014019 0.845 22 33 42 
0.07643362 0.3006885 0.8430001 33 45 49 
0.08140377 0.2992617 0.839 28 36 37 
0.08601292 0.2967649 0.832 27 35 36 
0.09020388 0.293198 0.822 24 32 33 
0.09368725 0.2878477 0.807 32 38 40 
0.09636769 0.2807139 0.7870001 67 66 73 
0.09930909 0.2750069 0.771 97 96 107 
0.1028581 0.27144 0.761 106 109 130 
0.106846 0.2692999 0.7550001 159 174 202 
0.1110534 0.2678731 0.751 196 221 255 
0.1155184 0.2671597 0.749 195 224 252 
0.1201186 0.2668031 0.748 191 219 250 
0.12504 0.2671597 0.749 197 226 254 
0.1298007 0.2671597 0.749 196 222 249 
0.1345615 0.2671597 0.749 186 208 250 
0.1391363 0.2668031 0.748 205 232 255 
0.1438907 0.2668031 0.748 217 250 254 
0.1486451 0.2668031 0.748 220 253 255 
0.1531944 0.2664464 0.747 194 218 248 
0.1579425 0.2664464 0.747 195 218 253 
0.1629083 0.2668031 0.748 217 250 254 
0.168111 0.2675164 0.7500001 247 255 255 
0.1733392 0.2682298 0.752 246 255 253 
0.1788296 0.2692999 0.7550001 219 248 249 
0.1843581 0.2703699 0.758 208 238 255 
0.188677 0.2696566 0.756 167 187 209 
0.1922026 0.2678731 0.751 166 186 208 
0.1959269 0.2664464 0.747 163 183 207 
0.2001377 0.265733 0.7450001 153 175 199 
0.203773 0.2643062 0.7410001 143 165 189 
0.2073575 0.2628795 0.737 145 165 187 
0.2108912 0.2614527 0.733 158 185 205 
0.2146681 0.2603827 0.73 173 197 227 
0.2190076 0.260026 0.729 171 196 230 
0.2236413 0.260026 0.729 175 199 240 
0.2279618 0.2596693 0.728 182 206 249 
0.2322696 0.2593126 0.7270001 185 208 254 
0.2365647 0.2589559 0.726 183 206 252 
0.240847 0.2585992 0.725 185 208 254 
0.2447782 0.2578858 0.723 190 214 253 
0.2483389 0.2568158 0.72 214 251 254 
0.2529154 0.2568158 0.72 219 255 255 
0.2578494 0.2571725 0.721 223 255 253 
0.2631602 0.2578858 0.723 229 255 255 
0.268126 0.2582425 0.724 227 255 253 
0.2727279 0.2582425 0.724 232 255 255 
0.2773297 0.2582425 0.724 227 255 253 
0.2819316 0.2582425 0.724 227 255 253 
0.2869292 0.2585992 0.725 225 255 252 
0.2919396 0.2589559 0.726 223 255 252 
0.2977796 0.260026 0.729 224 255 253 
0.302828 0.2603827 0.73 221 255 251 
0.3078892 0.2607393 0.731 232 255 254 
0.3125356 0.2607393 0.731 234 255 254 
0.3176159 0.261096 0.7320001 209 242 244 
0.3222686 0.261096 0.7320001 221 255 253 
0.3278145 0.2618094 0.734 219 255 253 
0.3333859 0.2625228 0.7360001 224 255 253 
0.3385233 0.2628795 0.737 224 255 253 
0.3427421 0.2625228 0.7360001 228 255 255 
0.3474203 0.2625228 0.7360001 231 255 255 
0.3520984 0.2625228 0.7360001 240 255 254 
0.3567766 0.2625228 0.7360001 245 255 255 
0.3614547 0.2625228 0.7360001 247 255 255 
0.3656353 0.2621661 0.735 247 255 254 
-0.2657712 0.2712162 0.757 0 2 1 
-0.2609596 0.2712162 0.757 7 21 27 
-0.2558096 0.2708579 0.756 13 29 37 
-0.2496763 0.2694248 0.752 13 29 37 
-0.2419655 0.2662003 0.743 3 17 19 
-0.2324533 0.2608261 0.728 1 9 10 
-0.2225059 0.2547354 0.711 3 14 14 
-0.2146142 0.2507944 0.7 12 26 32 
-0.2089639 0.2493612 0.696 17 33 41 
-0.2036584 0.2482864 0.693 13 29 39 
-0.1986785 0.2475698 0.691 37 56 76 
-0.1942864 0.2475698 0.691 51 73 95 
-0.1907187 0.2486447 0.694 55 77 99 
-0.1871129 0.2497195 0.697 56 78 100 
-0.1832069 0.2504361 0.6990001 55 77 99 
-0.1792754 0.2511526 0.701 54 79 100 
-0.1755679 0.2522275 0.7040001 56 81 102 
-0.1718222 0.2533023 0.707 57 82 105 
-0.1680384 0.2543771 0.71 57 82 105 
-0.1637559 0.2547354 0.711 61 86 109 
-0.1596846 0.255452 0.7130001 65 92 114 
-0.1555878 0.2561685 0.715 63 93 114 
-0.1516769 0.2572433 0.7180001 65 95 116 
-0.1479328 0.2586765 0.7220001 64 94 115 
-0.1439392 0.2597513 0.725 64 94 115 
-0.1399076 0.2608261 0.728 64 94 115 
-0.1356519 0.2615427 0.73 63 95 115 
-0.1315503 0.2626175 0.733 65 95 116 
-0.1275837 0.2640506 0.737 66 98 118 
-0.1235662 0.2654837 0.7410001 67 97 118 
-0.1191771 0.2662003 0.743 65 97 117 
-0.1147626 0.2669168 0.7450001 66 98 118 
-0.1103226 0.2676334 0.747 66 98 118 
-0.1061399 0.2690665 0.751 65 97 117 
-0.1019063 0.2704996 0.7550001 65 97 117 
-0.09749325 0.2715744 0.758 65 97 117 
-0.09304207 0.2726493 0.761 64 96 116 
-0.08843683 0.2733658 0.763 63 95 115 
-0.08380619 0.2740824 0.765 63 93 114 
-0.07904692 0.2744407 0.766 65 92 114 
-0.07437177 0.2751572 0.768 62 94 114 
-0.06976169 0.2762321 0.771 63 95 117 
-0.06528171 0.2780235 0.776 65 97 119 
-0.01953971 0.1920368 0.536 71 105 127 
-0.01607261 0.1913203 0.534 67 94 116 
-0.01258345 0.1898872 0.53 37 42 47 
-0.00914514 0.188454 0.526 31 31 33 
-0.005779738 0.1877375 0.524 36 36 36 
-0.002421064 0.1855878 0.518 52 51 51 
0.0008562877 0.1823633 0.509 75 69 73 
0.00406746 0.1812885 0.506 95 89 93 
0.007269284 0.1809302 0.505 114 108 114 
0.01047915 0.1809302 0.505 128 122 128 
0.01368901 0.1809302 0.505 140 133 142 
0.01693234 0.1812885 0.506 159 152 165 
0.02026801 0.1823633 0.509 169 167 178 
0.023688 0.1837964 0.513 177 175 186 
0.02705378 0.184513 0.515 179 178 189 
0.03044498 0.1852295 0.517 178 177 188 
0.0338616 0.1859461 0.5190001 179 177 188 
0.03730365 0.1866626 0.521 180 178 189 
0.06610691 0.3038194 0.848 109 109 127 
0.07141263 0.3034612 0.8470001 22 33 42 
0.07661495 0.3027446 0.845 33 43 48 
0.08159781 0.3013115 0.841 28 36 37 
0.08621968 0.2988035 0.8340001 27 35 36 
0.09009414 0.2941459 0.821 24 32 33 
0.09333897 0.2880552 0.804 44 44 48 
0.09600034 0.2808897 0.784 83 82 84 
0.09905148 0.2755155 0.7690001 114 113 120 
0.1025878 0.2719327 0.7590001 124 123 134 
0.106846 0.2704996 0.7550001 105 111 140 
0.1109056 0.2687082 0.7500001 199 224 255 
0.1153642 0.2679917 0.748 188 216 247 
0.119958 0.2676334 0.747 199 228 255 
0.124873 0.2679917 0.748 197 226 252 
0.1296275 0.2679917 0.748 202 232 255 
0.1343819 0.2679917 0.748 185 209 248 
0.1389502 0.2676334 0.747 203 230 254 
0.1436983 0.2676334 0.747 215 247 255 
0.1484464 0.2676334 0.747 217 250 254 
0.1531944 0.2676334 0.747 201 226 251 
0.157731 0.2672751 0.7460001 190 213 250 
0.1626905 0.2676334 0.747 219 252 255 
0.1678869 0.2683499 0.749 247 255 255 
0.1731087 0.2690665 0.751 244 255 252 
0.1785927 0.2701413 0.754 211 241 246 
0.1841149 0.2712162 0.757 201 231 254 
0.188677 0.2708579 0.756 171 191 215 
0.1922026 0.2690665 0.751 167 187 211 
0.1959269 0.2676334 0.747 162 182 206 
0.199869 0.2665586 0.744 155 175 199 
0.203498 0.2651255 0.74 143 163 187 
0.2070762 0.2636923 0.7360001 149 171 195 
0.2106035 0.2622592 0.7320001 160 187 211 
0.2146681 0.2615427 0.73 173 198 230 
0.2190076 0.2611844 0.729 171 196 230 
0.2233345 0.2608261 0.728 174 198 237 
0.2279618 0.2608261 0.728 181 205 248 
0.2319501 0.2601095 0.726 182 205 251 
0.2362388 0.2597513 0.725 182 205 251 
0.2405148 0.259393 0.724 183 206 252 
0.2444396 0.2586765 0.7220001 188 212 253 
0.247994 0.2576016 0.719 214 251 254 
0.2522128 0.2572433 0.7180001 214 251 254 
0.2571341 0.2576016 0.719 220 255 254 
0.2624322 0.2583182 0.721 228 255 255 
0.2677557 0.2590347 0.723 227 255 253 
0.2723512 0.2590347 0.723 233 255 255 
0.2769467 0.2590347 0.723 229 255 253 
0.2815422 0.2590347 0.723 227 255 253 
0.2861377 0.2590347 0.723 225 255 252 
0.2915374 0.2597513 0.725 223 255 252 
0.2969626 0.2604679 0.7270001 224 255 253 
0.3024132 0.2611844 0.729 220 255 250 
0.3074681 0.2615427 0.73 230 255 255 
0.312108 0.2615427 0.73 231 255 253 
0.3171819 0.2619009 0.731 213 247 246 
0.3218283 0.2619009 0.731 221 255 253 
0.3269213 0.2622592 0.7320001 219 255 253 
0.332027 0.2626175 0.733 226 255 253 
0.3376047 0.2633341 0.735 226 255 253 
0.3422765 0.2633341 0.735 226 255 253 
0.3469482 0.2633341 0.735 231 255 255 
0.35162 0.2633341 0.735 241 255 255 
0.3562918 0.2633341 0.735 246 255 255 
0.3609636 0.2633341 0.735 247 255 254 
0.3651379 0.2629758 0.734 249 255 254 
-0.2657712 0.2724191 0.757 0 2 1 
-0.2609596 0.2724191 0.757 7 21 27 
-0.2558096 0.2720592 0.756 13 29 37 
-0.2493442 0.2702599 0.751 13 29 37 
-0.2419655 0.2673809 0.743 3 17 19 
-0.232134 0.2616231 0.7270001 1 9 10 
-0.22188 0.2551455 0.7090001 3 14 14 
-0.2143076 0.2515468 0.6990001 14 28 34 
-0.2086637 0.2501073 0.6950001 15 31 39 
-0.2033645 0.2490277 0.692 12 28 36 
-0.1986785 0.2486679 0.691 38 58 80 
-0.1942864 0.2486679 0.691 51 73 95 
-0.1904439 0.2493876 0.693 56 78 100 
-0.1868445 0.2504672 0.696 55 77 99 
-0.1832069 0.2515468 0.6990001 54 76 98 
-0.1792754 0.2522665 0.701 53 78 99 
-0.1755679 0.2533461 0.7040001 55 80 101 
-0.1720652 0.2547856 0.708 57 82 103 
-0.1680384 0.2555053 0.71 57 82 103 
-0.1637559 0.2558652 0.711 60 85 106 
-0.1596846 0.2565849 0.7130001 65 92 114 
-0.1555878 0.2573047 0.715 63 93 114 
-0.1514657 0.2580244 0.717 65 95 116 
-0.1479328 0.2598237 0.7220001 64 94 115 
-0.1439392 0.2609033 0.725 64 94 115 
-0.1399076 0.2619829 0.728 64 94 115 
-0.1356519 0.2627027 0.73 64 96 116 
-0.1315503 0.2637823 0.733 65 95 116 
-0.1275837 0.2652217 0.737 67 97 118 
-0.1235662 0.2666612 0.7410001 67 97 118 
-0.1193375 0.2677408 0.744 66 98 118 
-0.1147626 0.2681007 0.7450001 66 98 118 
-0.1104703 0.2691803 0.748 65 97 117 
-0.1061399 0.2702599 0.751 64 96 116 
-0.1019063 0.2716993 0.7550001 64 96 116 
-0.09736463 0.2724191 0.757 66 98 118 
-0.0929198 0.2734987 0.7600001 64 96 116 
-0.08843683 0.2745782 0.763 63 95 115 
-0.08369664 0.2749381 0.7640001 63 93 114 
-0.07894373 0.275298 0.765 61 91 112 
-0.07427493 0.2760177 0.767 60 92 112 
-0.06967121 0.2770973 0.77 63 95 115 
-0.06511346 0.2785368 0.774 65 97 117 
-0.0212828 0.1932484 0.537 69 103 125 
-0.01780299 0.1925287 0.535 67 99 121 
-0.01432167 0.1914491 0.532 48 60 74 
-0.01085794 0.1900096 0.528 34 34 36 
-0.007473469 0.1892899 0.526 32 32 34 
-0.004098719 0.1878504 0.522 44 43 43 
-0.0007688348 0.1849715 0.514 63 62 64 
0.002469071 0.1828123 0.508 85 79 83 
0.00567557 0.1820925 0.506 106 100 106 
0.008891788 0.1820925 0.506 121 115 121 
0.01210801 0.1820925 0.506 134 128 134 
0.01532423 0.1820925 0.506 149 142 151 
0.01861373 0.1828123 0.508 165 159 174 
0.02201465 0.1842517 0.512 173 171 182 
0.02541707 0.1853313 0.515 180 179 190 
0.02880191 0.1860511 0.517 180 179 190 
0.03221218 0.1867708 0.5190001 179 177 188 
0.03564787 0.1874905 0.521 181 179 190 
0.03903421 0.1878504 0.522 180 178 189 
0.06880192 0.3051669 0.848 28 32 46 
0.07410446 0.3048071 0.8470001 36 50 56 
0.07920659 0.3037275 0.844 29 40 40 
0.08386977 0.3012084 0.837 29 37 38 
0.08833741 0.2983295 0.8290001 24 32 33 
0.09146129 0.291492 0.8100001 27 33 35 
0.09434362 0.2846545 0.791 79 74 72 
0.09711006 0.2781769 0.7730001 111 107 110 
0.1004396 0.2738585 0.761 131 127 132 
0.1045849 0.2720592 0.756 132 131 142 
0.1086667 0.2702599 0.751 146 153 186 
0.112987 0.2691803 0.748 197 226 254 
0.117584 0.2688204 0.747 191 219 252 
0.1223321 0.2688204 0.747 205 235 254 
0.1270801 0.2688204 0.747 194 224 247 
0.1318282 0.2688204 0.747 220 254 255 
0.1363934 0.2684605 0.7460001 189 214 246 
0.1413243 0.2688204 0.747 211 238 255 
0.1460723 0.2688204 0.747 207 238 252 
0.1506185 0.2684605 0.7460001 212 246 254 
0.1553602 0.2684605 0.7460001 197 221 249 
0.1601019 0.2684605 0.7460001 192 217 249 
0.1650645 0.2688204 0.747 237 255 255 
0.1702673 0.2695401 0.749 246 255 253 
0.1757291 0.2706197 0.752 230 254 252 
0.181229 0.2716993 0.7550001 202 233 249 
0.1865207 0.2724191 0.757 167 191 219 
0.1905741 0.2713394 0.754 170 190 214 
0.1940711 0.2695401 0.749 164 184 208 
0.19777 0.2681007 0.7450001 156 176 198 
0.2016899 0.2670211 0.742 146 164 187 
0.2050153 0.2652217 0.737 142 167 190 
0.2082771 0.2634224 0.7320001 166 191 216 
0.2123481 0.2627027 0.73 168 194 223 
0.2166908 0.2623428 0.729 173 198 232 
0.2213245 0.2623428 0.729 171 196 232 
0.2256481 0.2619829 0.728 175 199 238 
0.2299591 0.2616231 0.7270001 178 201 247 
0.2339347 0.2609033 0.725 181 204 252 
0.2382139 0.2605435 0.724 183 206 252 
0.242145 0.2598237 0.7220001 182 205 251 
0.2457089 0.2587441 0.719 202 236 254 
0.2499309 0.2583843 0.7180001 212 249 252 
0.2544947 0.2583843 0.7180001 210 250 252 
0.2594192 0.2587441 0.719 223 255 255 
0.2647236 0.2594638 0.721 229 255 255 
0.2696799 0.2598237 0.7220001 227 255 253 
0.2742691 0.2598237 0.7220001 234 255 255 
0.278472 0.2594638 0.721 226 255 252 
0.2830548 0.2594638 0.721 225 255 252 
0.2884355 0.2601836 0.723 223 255 252 
0.2934363 0.2605435 0.724 223 255 252 
0.2992731 0.2616231 0.7270001 222 255 252 
0.304312 0.2619829 0.728 224 255 253 
0.3093637 0.2623428 0.729 230 255 255 
0.3139973 0.2623428 0.729 220 255 252 
0.319068 0.2627027 0.73 222 255 254 
0.3241515 0.2630625 0.731 222 255 253 
0.3292476 0.2634224 0.7320001 223 255 253 
0.3339004 0.2634224 0.7320001 229 255 255 
0.3390156 0.2637823 0.733 225 255 252 
0.3436746 0.2637823 0.733 229 255 255 
0.3483337 0.2637823 0.733 234 255 254 
0.3534743 0.2641421 0.734 245 255 255 
0.3581398 0.2641421 0.734 246 255 253 
0.3628052 0.2641421 0.734 249 255 254 
0.3669699 0.2637823 0.733 249 255 254 
-0.2633654 0.2736219 0.757 0 5 3 
-0.2585538 0.2736219 0.757 14 31 36 
-0.2527366 0.2725376 0.754 13 29 37 
-0.2456421 0.2700074 0.747 7 24 29 
-0.2367018 0.2653085 0.734 2 15 14 
-0.2257139 0.2580794 0.714 3 14 14 
-0.2171486 0.2533804 0.701 11 23 25 
-0.2108724 0.2512117 0.6950001 15 31 39 
-0.2055637 0.2501273 0.692 10 26 34 
-0.2005839 0.2494044 0.6900001 22 42 57 
-0.1961981 0.2494044 0.6900001 47 69 91 
-0.1920903 0.2497659 0.691 55 77 99 
-0.1885131 0.2508502 0.694 55 77 99 
-0.1848978 0.2519346 0.697 54 76 98 
-0.1812443 0.253019 0.7 56 78 100 
-0.1773001 0.2537419 0.702 54 79 100 
-0.1735767 0.2548263 0.705 57 82 103 
-0.170055 0.2562721 0.7090001 56 81 102 
-0.1660155 0.256995 0.711 59 84 105 
-0.1617234 0.2573564 0.712 63 90 110 
-0.1576394 0.2580794 0.714 63 93 114 
-0.1535299 0.2588023 0.716 64 94 115 
-0.1496031 0.2598867 0.719 64 94 115 
-0.1458399 0.2613325 0.723 64 94 115 
-0.1418305 0.2624168 0.726 64 94 115 
-0.1377829 0.2635012 0.729 64 94 115 
-0.1335146 0.2642241 0.731 65 95 116 
-0.1295734 0.2656699 0.735 65 95 116 
-0.1255813 0.2671157 0.739 67 97 118 
-0.1213749 0.2682001 0.742 66 96 117 
-0.1171302 0.2692845 0.7450001 66 98 118 
-0.1126966 0.2700074 0.747 66 98 118 
-0.1082376 0.2707303 0.749 64 96 116 
-0.1040294 0.2721761 0.753 65 97 117 
-0.09963864 0.2732605 0.756 65 97 117 
-0.09508426 0.2739834 0.758 64 96 116 
-0.09062355 0.2750678 0.761 63 95 115 
-0.08601196 0.2757907 0.763 61 91 112 
-0.08126859 0.2761522 0.7640001 61 91 112 
-0.07651249 0.2765136 0.765 59 91 111 
-0.071931 0.277598 0.768 62 94 114 
-0.06731138 0.2786824 0.771 64 96 116 
-0.02298943 0.1941017 0.537 71 103 125 
-0.01953971 0.1937402 0.536 70 102 124 
-0.01604252 0.1926559 0.5330001 61 88 108 
-0.01258345 0.1915715 0.53 36 39 42 
-0.009162526 0.1904871 0.527 31 31 33 
-0.005790768 0.1897642 0.525 37 37 37 
-0.002425738 0.1875955 0.5190001 53 52 52 
0.0008579701 0.1843424 0.5100001 75 71 74 
0.004075498 0.183258 0.507 94 88 92 
0.007298073 0.183258 0.507 115 109 115 
0.0104999 0.1828966 0.506 128 122 128 
0.01371612 0.1828966 0.506 141 134 143 
0.0169658 0.183258 0.507 159 152 165 
0.02030783 0.1843424 0.5100001 170 168 179 
0.02373417 0.1857882 0.514 177 175 186 
0.02710631 0.1865111 0.516 180 179 190 
0.03056275 0.1875955 0.5190001 179 178 189 
0.03392684 0.187957 0.52 179 178 189 
0.03737525 0.1886799 0.522 180 179 190 
0.06618486 0.3068759 0.849 81 79 95 
0.07149694 0.3065144 0.848 16 28 34 
0.07670562 0.3057915 0.846 30 42 46 
0.08159781 0.3039842 0.841 28 36 37 
0.08621968 0.3014541 0.8340001 27 35 36 
0.08998441 0.2963937 0.8200001 25 31 33 
0.09241023 0.2877187 0.7960001 71 67 68 
0.09526564 0.2812125 0.7780001 104 104 100 
0.09840745 0.2761522 0.7640001 130 124 128 
0.1023174 0.2736219 0.757 143 141 148 
0.1064215 0.2718147 0.752 146 145 154 
0.1106098 0.2703688 0.748 184 198 229 
0.1150558 0.269646 0.7460001 190 218 251 
0.1197975 0.269646 0.7460001 208 238 255 
0.1245392 0.269646 0.7460001 210 241 255 
0.1292809 0.269646 0.7460001 215 245 255 
0.1338429 0.2692845 0.7450001 206 239 252 
0.1385782 0.2692845 0.7450001 200 226 253 
0.1435059 0.269646 0.7460001 201 228 252 
0.1482476 0.269646 0.7460001 209 243 253 
0.1529893 0.269646 0.7460001 209 241 250 
0.1575196 0.2692845 0.7450001 193 216 249 
0.1624727 0.269646 0.7460001 212 241 249 
0.1676627 0.2703688 0.748 247 255 254 
0.1728781 0.2710918 0.7500001 239 255 253 
0.1783558 0.2721761 0.753 206 238 249 
0.1841149 0.2736219 0.757 190 215 247 
0.188677 0.2732605 0.756 170 192 218 
0.1922026 0.2714532 0.751 165 187 211 
0.1956646 0.269646 0.7460001 159 179 201 
0.1996004 0.2685616 0.743 151 169 192 
0.203223 0.2671157 0.739 143 165 187 
0.2062321 0.264947 0.733 161 186 211 
0.2103158 0.2642241 0.731 167 193 222 
0.214374 0.2635012 0.729 174 199 233 
0.2190076 0.2635012 0.729 169 194 228 
0.2233345 0.2631398 0.728 176 200 239 
0.2276487 0.2627783 0.7270001 178 202 245 
0.2319501 0.2624168 0.726 181 204 250 
0.235913 0.2616939 0.724 182 205 251 
0.2401826 0.2613325 0.723 183 206 252 
0.2437625 0.2602481 0.72 181 208 250 
0.2473041 0.2591637 0.717 212 248 254 
0.2518615 0.2591637 0.717 208 247 254 
0.2567765 0.2595252 0.7180001 219 255 255 
0.2617042 0.2598867 0.719 223 255 253 
0.267015 0.2606095 0.721 227 255 253 
0.2715978 0.2606095 0.721 230 255 255 
0.2757975 0.2602481 0.72 227 255 253 
0.2799846 0.2598867 0.719 227 255 253 
0.2849504 0.2602481 0.72 225 255 252 
0.2903311 0.260971 0.7220001 223 255 252 
0.2957372 0.2616939 0.724 223 255 252 
0.3015836 0.2627783 0.7270001 221 255 251 
0.3062045 0.2627783 0.7270001 222 255 251 
0.311253 0.2631398 0.728 226 255 253 
0.3158803 0.2631398 0.728 223 255 252 
0.3209478 0.2635012 0.729 228 255 255 
0.326028 0.2638626 0.73 221 255 251 
0.331121 0.2642241 0.731 232 255 255 
0.3357674 0.2642241 0.731 227 255 253 
0.3408794 0.2645856 0.7320001 226 255 253 
0.3455321 0.2645856 0.7320001 234 255 255 
0.3501849 0.2645856 0.7320001 240 255 255 
0.3553223 0.264947 0.733 247 255 254 
0.3599814 0.264947 0.733 249 255 254 
0.3646404 0.264947 0.733 249 255 254 
0.3692995 0.264947 0.733 250 255 254 
-0.2657712 0.2748249 0.757 0 2 1 
-0.2609596 0.2748249 0.757 7 21 27 
-0.2554712 0.2740988 0.7550001 12 28 36 
-0.2490122 0.2722836 0.7500001 13 29 37 
-0.2413142 0.2690162 0.7410001 3 17 19 
-0.2305375 0.2621183 0.7220001 0 10 10 
-0.2203153 0.2555835 0.7040001 4 15 15 
-0.2133878 0.2526791 0.696 13 29 37 
-0.207763 0.251227 0.692 12 28 36 
-0.2027767 0.2505009 0.6900001 11 27 37 
-0.1981035 0.2501378 0.689 41 63 85 
-0.1937241 0.2501378 0.689 51 73 95 
-0.1898943 0.2508639 0.691 58 78 100 
-0.186576 0.2523161 0.6950001 56 76 98 
-0.1829447 0.2534052 0.698 54 76 98 
-0.1792754 0.2544944 0.701 55 77 99 
-0.1753185 0.2552204 0.703 55 80 101 
-0.1718222 0.2566727 0.707 57 82 103 
-0.1680384 0.2577618 0.71 57 82 103 
-0.1637559 0.2581248 0.711 59 84 107 
-0.1596846 0.2588509 0.7130001 65 92 114 
-0.1555878 0.259577 0.715 63 93 114 
-0.1514657 0.2603031 0.717 64 94 115 
-0.1477279 0.2617553 0.721 64 94 115 
-0.1437407 0.2628444 0.724 64 94 115 
-0.1397154 0.2639335 0.7270001 64 94 115 
-0.1356519 0.2650227 0.73 64 94 115 
-0.1313709 0.2657488 0.7320001 64 94 115 
-0.1275837 0.267564 0.737 67 97 118 
-0.1235662 0.2690162 0.7410001 67 97 118 
-0.1191771 0.2697423 0.743 65 97 117 
-0.1149166 0.2708314 0.7460001 66 98 118 
-0.1104703 0.2715575 0.748 65 97 117 
-0.1061399 0.2726466 0.751 64 96 116 
-0.1017713 0.2737357 0.754 65 97 117 
-0.09723601 0.2744618 0.756 65 97 117 
-0.09279755 0.275551 0.7590001 64 96 116 
-0.08832093 0.2766401 0.762 63 95 115 
-0.08358708 0.2770031 0.763 61 91 112 
-0.07884053 0.2773662 0.7640001 61 91 112 
-0.0741781 0.2780923 0.766 60 92 112 
-0.06958073 0.2791814 0.7690001 65 95 116 
-0.06494521 0.2802705 0.772 64 96 116 
-0.0212828 0.194955 0.537 70 102 124 
-0.01780299 0.1942289 0.535 65 97 119 
-0.01429475 0.1927768 0.531 46 57 66 
-0.0108785 0.1920507 0.529 34 34 36 
-0.007473469 0.1909615 0.526 31 31 31 
-0.004106571 0.1898724 0.523 46 45 45 
-0.0007703307 0.1869681 0.515 65 64 66 
0.002473931 0.1847898 0.509 85 79 83 
0.005698002 0.1844267 0.508 106 100 106 
0.008909361 0.1840637 0.507 124 115 122 
0.01213194 0.1840637 0.507 137 127 137 
0.01535451 0.1840637 0.507 149 142 153 
0.01865037 0.1847898 0.509 165 159 174 
0.02201465 0.1858789 0.512 173 171 182 
0.02541707 0.1869681 0.515 180 179 190 
0.02885762 0.1880572 0.518 180 179 190 
0.03227424 0.1887833 0.52 179 178 189 
0.03571629 0.1895094 0.522 181 180 191 
0.03910899 0.1898724 0.523 181 179 190 
0.06880192 0.307862 0.848 23 32 42 
0.07401697 0.3071359 0.846 31 48 53 
0.07920659 0.3064098 0.844 29 42 41 
0.08396997 0.3042315 0.8380001 28 36 37 
0.08812429 0.300238 0.827 25 33 34 
0.09159757 0.2864423 0.789 80 76 77 
0.0946534 0.2806336 0.7730001 111 110 110 
0.09802104 0.2762771 0.761 137 128 135 
0.1021823 0.2744618 0.756 148 143 151 
0.1062799 0.2726466 0.751 157 156 165 
0.1104619 0.2711944 0.747 138 144 173 
0.1150558 0.2708314 0.7460001 195 220 254 
0.1196369 0.2704684 0.7450001 210 241 255 
0.1243722 0.2704684 0.7450001 214 246 255 
0.1291075 0.2704684 0.7450001 207 237 255 
0.1336632 0.2701053 0.744 214 246 255 
0.1383922 0.2701053 0.744 202 229 251 
0.1433136 0.2704684 0.7450001 196 220 250 
0.1480489 0.2704684 0.7450001 208 239 255 
0.1527843 0.2704684 0.7450001 210 242 251 
0.1573082 0.2701053 0.744 199 226 250 
0.1622549 0.2704684 0.7450001 215 244 254 
0.1674386 0.2711944 0.747 246 255 254 
0.1728781 0.2722836 0.7500001 234 255 251 
0.1783558 0.2733727 0.753 203 234 250 
0.1841149 0.2748249 0.757 175 198 231 
0.188677 0.2744618 0.756 169 191 217 
0.1922026 0.2726466 0.751 163 185 209 
0.1956646 0.2708314 0.7460001 156 178 200 
0.1996004 0.2697423 0.743 149 169 191 
0.202948 0.267927 0.738 146 168 190 
0.2062321 0.2661118 0.733 172 193 222 
0.2100281 0.2650227 0.73 172 195 228 
0.214374 0.2646596 0.729 175 200 234 
0.2187072 0.2642966 0.728 173 198 234 
0.2230277 0.2639335 0.7270001 176 200 239 
0.2273355 0.2635705 0.726 178 202 245 
0.2316306 0.2632074 0.725 181 204 250 
0.235913 0.2628444 0.724 182 205 251 
0.2398504 0.2621183 0.7220001 186 209 255 
0.2434239 0.2610292 0.719 180 207 247 
0.2473041 0.2603031 0.717 211 247 255 
0.2515103 0.25994 0.716 204 243 252 
0.2564189 0.2603031 0.717 220 255 254 
0.2617042 0.2610292 0.719 220 255 254 
0.2666447 0.2613922 0.72 226 255 253 
0.2712211 0.2613922 0.72 228 255 255 
0.2750314 0.2606661 0.7180001 227 255 253 
0.2795952 0.2606661 0.7180001 227 255 253 
0.2841589 0.2606661 0.7180001 225 255 252 
0.2895268 0.2613922 0.72 225 255 252 
0.2953287 0.2624814 0.723 223 255 252 
0.3007539 0.2632074 0.725 222 255 252 
0.3057833 0.2635705 0.726 221 255 251 
0.3103979 0.2635705 0.726 229 255 255 
0.3154464 0.2639335 0.7270001 223 255 252 
0.3205075 0.2642966 0.728 230 255 255 
0.3255814 0.2646596 0.729 222 255 251 
0.3302151 0.2646596 0.729 233 255 255 
0.3348487 0.2646596 0.729 227 255 251 
0.339948 0.2650227 0.73 229 255 251 
0.3450601 0.2653857 0.731 234 255 254 
0.3497064 0.2653857 0.731 240 255 255 
0.3548375 0.2657488 0.7320001 249 255 254 
0.3594903 0.2657488 0.7320001 249 255 254 
0.364143 0.2657488 0.7320001 249 255 254 
0.3687957 0.2657488 0.7320001 250 255 254 
-0.2657712 0.2760278 0.757 0 2 1 
-0.2609596 0.2760278 0.757 9 21 27 
-0.2554712 0.2752985 0.7550001 12 28 36 
-0.2490122 0.2734753 0.7500001 12 28 36 
-0.2409885 0.269829 0.74 3 17 19 
-0.227983 0.2603485 0.714 0 10 10 
-0.2187505 0.254879 0.6990001 5 16 16 
-0.2127746 0.2530558 0.694 13 29 37 
-0.2074627 0.2519619 0.691 11 27 35 
-0.2027767 0.2515973 0.6900001 12 28 38 
-0.1981035 0.2512327 0.689 42 64 86 
-0.1937241 0.2512327 0.689 51 73 95 
-0.1898943 0.2519619 0.691 56 76 98 
-0.1863075 0.2530558 0.694 56 76 98 
-0.1829447 0.2545144 0.698 54 76 98 
-0.1790196 0.2552437 0.7 55 77 99 
-0.1753185 0.2563376 0.703 55 80 101 
-0.1718222 0.2577961 0.707 59 84 105 
-0.1678018 0.2585254 0.7090001 57 82 103 
-0.1637559 0.2592546 0.711 60 85 108 
-0.1596846 0.2599839 0.7130001 63 93 114 
-0.1555878 0.2607132 0.715 61 91 112 
-0.1514657 0.2614424 0.717 63 93 114 
-0.1477279 0.2629009 0.721 65 95 116 
-0.1437407 0.2639949 0.724 64 94 115 
-0.1397154 0.2650888 0.7270001 63 95 115 
-0.1356519 0.2661827 0.73 62 94 114 
-0.1313709 0.2669119 0.7320001 63 95 115 
-0.1274106 0.2683705 0.7360001 66 96 117 
-0.1233995 0.269829 0.74 68 98 119 
-0.1191771 0.2709229 0.743 66 96 117 
-0.1147626 0.2716522 0.7450001 65 97 117 
-0.1104703 0.2727461 0.748 65 97 117 
-0.1061399 0.27384 0.751 64 96 116 
-0.1016364 0.2745692 0.753 64 96 116 
-0.0971074 0.2752985 0.7550001 65 97 117 
-0.09267528 0.2763924 0.758 64 96 116 
-0.08820502 0.2774863 0.761 62 94 114 
-0.08347753 0.2778509 0.762 60 92 114 
-0.07884053 0.2785802 0.7640001 61 91 114 
-0.0741781 0.2793095 0.766 63 93 114 
-0.06949024 0.2800387 0.768 66 96 117 
-0.06486108 0.2811326 0.771 65 97 117 
-0.0212828 0.1958083 0.537 67 98 123 
-0.01780299 0.1950791 0.535 65 97 119 
-0.01429475 0.1936205 0.531 45 54 64 
-0.0108785 0.1928913 0.529 33 33 35 
-0.007487677 0.192162 0.527 32 32 32 
-0.004106571 0.1907035 0.523 46 45 45 
-0.0007703307 0.1877864 0.515 65 64 66 
0.002478792 0.1859632 0.5100001 86 80 84 
0.005698002 0.185234 0.508 106 100 106 
0.008926934 0.185234 0.508 122 115 124 
0.01215587 0.185234 0.508 137 127 137 
0.0153848 0.185234 0.508 149 142 153 
0.01865037 0.1855986 0.509 164 158 173 
0.02201465 0.1866925 0.512 173 170 184 
0.02541707 0.1877864 0.515 180 179 190 
0.02885762 0.1888803 0.518 181 180 191 
0.03233631 0.1899742 0.521 179 178 189 
0.03578471 0.1907035 0.523 181 180 191 
0.03918377 0.1910681 0.524 182 180 191 
0.06880192 0.3092095 0.848 22 31 41 
0.07401697 0.3084802 0.846 31 48 53 
0.07911275 0.3073863 0.8430001 29 42 41 
0.08386977 0.3051985 0.837 28 36 37 
0.08780462 0.3004583 0.8240001 27 35 36 
0.09066882 0.284779 0.781 89 85 86 
0.09404115 0.2800387 0.768 117 116 116 
0.09789223 0.2771217 0.7600001 141 135 141 
0.1019119 0.2749339 0.754 150 145 153 
0.1061384 0.2734753 0.7500001 161 160 169 
0.1104619 0.2723814 0.747 153 150 169 
0.1149015 0.2716522 0.7450001 197 217 251 
0.1194763 0.2712875 0.744 210 242 253 
0.1242053 0.2712875 0.744 215 247 255 
0.1289342 0.2712875 0.744 205 236 252 
0.1334836 0.2709229 0.743 221 250 255 
0.1382062 0.2709229 0.743 208 234 250 
0.1431212 0.2712875 0.744 193 216 251 
0.1478502 0.2712875 0.744 206 236 255 
0.1523741 0.2709229 0.743 212 244 253 
0.1573082 0.2712875 0.744 209 236 255 
0.1622549 0.2716522 0.7450001 215 244 254 
0.1672144 0.2720168 0.7460001 246 255 254 
0.1726476 0.2731107 0.749 224 253 252 
0.1783558 0.2745692 0.753 203 234 250 
0.1841149 0.2760278 0.757 171 191 225 
0.188677 0.2756631 0.756 169 191 217 
0.1922026 0.27384 0.751 162 184 208 
0.1956646 0.2720168 0.7460001 154 176 198 
0.1993318 0.2705583 0.742 148 168 190 
0.202673 0.2687351 0.737 146 168 192 
0.2062321 0.2672766 0.733 180 203 236 
0.2100281 0.2661827 0.73 174 197 234 
0.214374 0.265818 0.729 175 200 236 
0.2187072 0.2654534 0.728 176 201 237 
0.2230277 0.2650888 0.7270001 178 202 241 
0.2270224 0.2643595 0.725 178 202 243 
0.2313111 0.2639949 0.724 180 203 249 
0.2355871 0.2636302 0.723 178 201 247 
0.2395182 0.2629009 0.721 185 211 255 
0.2434239 0.2621717 0.719 186 213 251 
0.2469592 0.2610778 0.716 210 246 254 
0.2515103 0.2610778 0.716 204 239 252 
0.2564189 0.2614424 0.717 223 255 255 
0.2613403 0.2618071 0.7180001 219 255 253 
0.2662743 0.2621717 0.719 224 255 253 
0.2704677 0.2618071 0.7180001 224 255 253 
0.2746484 0.2614424 0.717 227 255 253 
0.2788163 0.2610778 0.716 227 255 253 
0.2837631 0.2614424 0.717 223 255 252 
0.2891247 0.2621717 0.719 223 255 252 
0.2945118 0.2629009 0.721 223 255 252 
0.300339 0.2639949 0.724 222 255 252 
0.3049409 0.2639949 0.724 221 255 251 
0.3095428 0.2639949 0.724 233 255 255 
0.3145785 0.2643595 0.725 225 255 252 
0.319627 0.2647241 0.726 229 255 255 
0.3246882 0.2650888 0.7270001 225 255 252 
0.3297621 0.2654534 0.728 233 255 255 
0.3343894 0.2654534 0.728 229 255 251 
0.338551 0.2650888 0.7270001 234 255 254 
0.344116 0.265818 0.729 238 255 255 
0.3492281 0.2661827 0.73 237 255 254 
0.3543528 0.2665473 0.731 249 255 254 
0.3594903 0.2669119 0.7320001 249 255 254 
0.3636455 0.2665473 0.731 249 255 254 
0.3682919 0.2665473 0.731 250 255 254 
-0.2661223 0.2775969 0.758 0 2 1 
-0.2609596 0.2772307 0.757 8 20 26 
-0.2554712 0.2764982 0.7550001 12 28 36 
-0.2490122 0.2746671 0.7500001 12 28 36 
-0.2406628 0.2706386 0.739 3 17 19 
-0.227983 0.2614831 0.714 1 12 12 
-0.2181246 0.2552573 0.697 6 17 17 
-0.2127746 0.2541586 0.694 13 31 38 
-0.2074627 0.25306 0.691 10 23 32 
-0.2024828 0.2523275 0.689 13 30 42 
-0.1978159 0.2519613 0.688 43 66 85 
-0.1937241 0.2523275 0.689 51 73 95 
-0.1896195 0.2526937 0.6900001 56 76 98 
-0.1860391 0.2537924 0.693 55 75 97 
-0.1826826 0.2552573 0.697 54 76 98 
-0.1790196 0.256356 0.7 54 76 98 
-0.1750691 0.2570884 0.702 55 80 101 
-0.1715792 0.2585533 0.706 57 82 103 
-0.1675651 0.2592857 0.708 57 82 103 
-0.1635256 0.2600182 0.71 59 86 108 
-0.1594606 0.2607507 0.712 61 91 112 
-0.1555878 0.2618493 0.715 58 90 110 
-0.1514657 0.2625817 0.717 60 92 112 
-0.1477279 0.2640466 0.721 64 96 116 
-0.1437407 0.2651453 0.724 62 94 114 
-0.1397154 0.266244 0.7270001 62 94 114 
-0.1356519 0.2673427 0.73 62 94 114 
-0.1313709 0.2680751 0.7320001 62 94 114 
-0.1274106 0.26954 0.7360001 65 95 116 
-0.1232327 0.2706386 0.739 67 97 118 
-0.1190167 0.2717373 0.742 66 96 117 
-0.1147626 0.272836 0.7450001 66 96 117 
-0.1104703 0.2739347 0.748 64 96 116 
-0.1061399 0.2750333 0.751 64 96 116 
-0.1016364 0.2757658 0.753 64 96 116 
-0.09697877 0.276132 0.754 63 95 115 
-0.09267528 0.2775969 0.758 64 96 116 
-0.08820502 0.2786956 0.761 62 94 114 
-0.08347753 0.2790618 0.762 60 92 114 
-0.07884053 0.2797942 0.7640001 61 91 114 
-0.0741781 0.2805267 0.766 63 93 114 
-0.06949024 0.2812591 0.768 65 95 116 
-0.06486108 0.2823578 0.771 64 96 116 
-0.02303224 0.1970279 0.538 69 101 123 
-0.01961262 0.1970279 0.538 61 94 119 
-0.01607261 0.195563 0.534 49 72 89 
-0.01258345 0.1940981 0.53 35 38 41 
-0.009179912 0.1933656 0.528 31 31 31 
-0.005801798 0.1926332 0.526 39 38 38 
-0.002430412 0.1904359 0.52 56 52 53 
0.0008630169 0.1878723 0.513 76 72 77 
0.004091575 0.1864074 0.509 94 88 92 
0.007326862 0.1864074 0.509 114 107 116 
0.0105414 0.1860412 0.508 129 122 131 
0.01377033 0.1860412 0.508 142 135 144 
0.01703272 0.1864074 0.509 157 150 163 
0.02034765 0.1871399 0.511 169 166 180 
0.02373417 0.1882385 0.514 179 177 188 
0.02715884 0.1893372 0.517 183 182 193 
0.03062164 0.1904359 0.52 180 179 190 
0.03412258 0.1915345 0.523 181 180 191 
0.03751845 0.1919008 0.524 180 179 190 
0.06618486 0.3109232 0.849 45 46 61 
0.07132831 0.3098245 0.846 12 23 32 
0.07643362 0.3087258 0.8430001 31 43 47 
0.08140377 0.3072609 0.839 29 37 38 
0.08580616 0.3039649 0.83 28 34 36 
0.08897715 0.2885836 0.788 80 76 77 
0.09171966 0.2816254 0.7690001 114 110 111 
0.09560252 0.2786956 0.761 136 132 133 
0.09964766 0.2764982 0.7550001 151 145 151 
0.1038932 0.2750333 0.751 159 157 164 
0.1080879 0.2735685 0.747 168 166 175 
0.1125338 0.272836 0.7450001 147 146 171 
0.1171118 0.2724698 0.744 208 234 255 
0.121677 0.2721035 0.743 210 242 253 
0.1263996 0.2721035 0.743 213 245 254 
0.1309458 0.2717373 0.742 200 231 245 
0.1356621 0.2717373 0.742 229 255 255 
0.1403783 0.2717373 0.742 196 220 248 
0.1452902 0.2721035 0.743 197 220 253 
0.1498109 0.2717373 0.742 207 235 252 
0.1545272 0.2717373 0.742 221 255 255 
0.1596727 0.2724698 0.744 194 220 247 
0.1646226 0.272836 0.7450001 235 255 255 
0.1698126 0.2735685 0.747 234 255 251 
0.1754954 0.2750333 0.751 207 239 250 
0.181229 0.2764982 0.7550001 195 218 251 
0.1865207 0.2772307 0.757 174 195 226 
0.1903213 0.2757658 0.753 163 185 209 
0.1935529 0.2735685 0.747 157 179 201 
0.1972391 0.2721035 0.743 148 168 190 
0.2006026 0.2702724 0.738 144 164 186 
0.2044589 0.2691738 0.735 179 202 235 
0.2079926 0.2677089 0.731 179 203 242 
0.2120572 0.2669764 0.729 175 197 237 
0.2163936 0.2666102 0.728 173 197 236 
0.2207173 0.266244 0.7270001 173 198 234 
0.2247183 0.2655115 0.725 176 200 239 
0.2290102 0.2651453 0.724 180 204 247 
0.2332894 0.2647791 0.723 181 204 250 
0.2375559 0.2644129 0.7220001 178 204 249 
0.2411389 0.2633142 0.719 184 210 255 
0.2450255 0.2625817 0.717 199 231 253 
0.2492348 0.2622155 0.716 206 242 250 
0.2537858 0.2622155 0.716 214 249 252 
0.2586976 0.2625817 0.717 218 255 252 
0.2636221 0.262948 0.7180001 219 255 253 
0.2681859 0.262948 0.7180001 222 255 252 
0.2723697 0.2625817 0.717 226 255 253 
0.2765408 0.2622155 0.716 227 255 253 
0.2810918 0.2622155 0.716 225 255 252 
0.2856429 0.2622155 0.716 220 255 250 
0.2910045 0.262948 0.7180001 222 255 252 
0.2963915 0.2636804 0.72 222 255 252 
0.302222 0.2647791 0.723 222 255 252 
0.3068175 0.2647791 0.723 226 255 255 
0.311413 0.2647791 0.723 227 255 251 
0.3164456 0.2651453 0.724 226 255 251 
0.3210475 0.2651453 0.724 231 255 253 
0.3265489 0.2658778 0.726 229 255 253 
0.3311635 0.2658778 0.726 235 255 254 
0.335778 0.2658778 0.726 233 255 253 
0.3399237 0.2655115 0.725 241 255 255 
0.3459576 0.2666102 0.728 237 255 252 
0.351548 0.2673427 0.73 246 255 254 
0.356676 0.2677089 0.731 247 255 252 
0.3613223 0.2677089 0.731 249 255 254 
0.365468 0.2673427 0.73 250 255 254 
-0.2709402 0.2788014 0.758 0 5 4 
-0.2661223 0.2788014 0.758 0 4 4 
-0.2613043 0.2788014 0.758 8 20 26 
-0.2554712 0.277698 0.7550001 14 27 36 
-0.2490122 0.2758589 0.7500001 12 28 36 
-0.2406628 0.271813 0.739 3 17 19 
-0.2257479 0.260043 0.707 1 12 10 
-0.2174987 0.2556293 0.6950001 9 20 20 
-0.2118548 0.254158 0.691 13 31 38 
-0.2071625 0.2537902 0.6900001 10 24 30 
-0.202189 0.2530546 0.688 18 38 51 
-0.1978159 0.2530546 0.688 44 67 86 
-0.1934429 0.2530546 0.688 50 72 94 
-0.1896195 0.2537902 0.6900001 55 75 97 
-0.1857706 0.2545258 0.692 53 73 95 
-0.1824206 0.2559971 0.696 53 75 97 
-0.1790196 0.2574683 0.7 53 75 97 
-0.1750691 0.2582039 0.702 54 79 100 
-0.1713362 0.2593074 0.705 57 82 103 
-0.1673284 0.260043 0.707 56 81 102 
-0.1635256 0.2611464 0.71 59 86 108 
-0.1594606 0.261882 0.712 59 91 111 
-0.1555878 0.2629855 0.715 58 90 112 
-0.1514657 0.2637211 0.717 60 92 112 
-0.1477279 0.2651924 0.721 63 95 115 
-0.1437407 0.2662958 0.724 62 94 114 
-0.1397154 0.2673993 0.7270001 63 95 115 
-0.1356519 0.2685027 0.73 62 94 114 
-0.1313709 0.2692383 0.7320001 62 94 114 
-0.1274106 0.2707095 0.7360001 64 94 115 
-0.1232327 0.271813 0.739 67 97 118 
-0.1190167 0.2729164 0.742 65 95 116 
-0.1147626 0.2740199 0.7450001 66 96 117 
-0.1104703 0.2751233 0.748 64 96 116 
-0.1059986 0.2758589 0.7500001 65 95 116 
-0.1015014 0.2765945 0.752 64 94 115 
-0.09697877 0.2773301 0.754 60 92 112 
-0.09255301 0.2784336 0.757 64 96 118 
-0.08808912 0.279537 0.7600001 62 94 114 
-0.08347753 0.2802726 0.762 60 92 112 
-0.07884053 0.2810083 0.7640001 61 91 114 
-0.0741781 0.2817439 0.766 63 93 116 
-0.06949024 0.2824795 0.768 64 94 115 
-0.06486108 0.283583 0.771 65 97 117 
-0.02132243 0.1978828 0.538 65 97 119 
-0.01786954 0.197515 0.537 61 95 117 
-0.01432167 0.1956759 0.532 40 47 55 
-0.0108785 0.1945725 0.529 30 33 32 
-0.007487677 0.1938369 0.527 33 33 29 
-0.004114422 0.1927334 0.524 49 45 46 
-0.0007718264 0.1897909 0.516 65 61 64 
0.002483652 0.1879519 0.511 85 79 85 
0.005720436 0.1875841 0.5100001 105 99 105 
0.008944506 0.1872162 0.509 121 114 123 
0.01217979 0.1872162 0.509 135 128 137 
0.01541508 0.1872162 0.509 149 142 151 
0.01868701 0.1875841 0.5100001 164 159 171 
0.02201465 0.1883197 0.512 174 172 183 
0.02546642 0.1897909 0.516 180 179 190 
0.02891333 0.1908944 0.5190001 182 181 192 
0.03239837 0.1919978 0.522 180 179 190 
0.03592156 0.1931012 0.525 182 181 192 
0.03933332 0.193469 0.526 181 180 191 
0.0687208 0.3115367 0.8470001 19 28 38 
0.0737545 0.3100654 0.8430001 30 42 46 
0.07873736 0.3085942 0.839 32 40 41 
0.08356916 0.3067551 0.8340001 29 35 37 
0.08737838 0.3016057 0.8200001 53 49 50 
0.09136184 0.2817439 0.766 120 116 117 
0.09522564 0.2788014 0.758 141 137 138 
0.09951568 0.2773301 0.754 154 150 155 
0.1037549 0.2758589 0.7500001 161 159 166 
0.1079432 0.2743877 0.7460001 170 168 177 
0.1123828 0.273652 0.744 172 169 183 
0.1169544 0.2732842 0.743 189 207 234 
0.1215132 0.2729164 0.742 207 238 252 
0.1262295 0.2729164 0.742 216 248 255 
0.1307693 0.2725486 0.7410001 210 243 247 
0.1354792 0.2725486 0.7410001 229 255 255 
0.1401892 0.2725486 0.7410001 209 237 252 
0.1448991 0.2725486 0.7410001 194 217 252 
0.149609 0.2725486 0.7410001 207 235 252 
0.1543189 0.2725486 0.7410001 216 250 255 
0.1592434 0.2729164 0.742 196 223 245 
0.1646226 0.2740199 0.7450001 237 255 255 
0.1698126 0.2747555 0.747 231 255 251 
0.1754954 0.2762267 0.751 206 237 251 
0.1814691 0.2780658 0.756 190 213 248 
0.1865207 0.2784336 0.757 174 195 224 
0.1900686 0.2765945 0.752 163 185 209 
0.1932938 0.2743877 0.7460001 159 179 201 
0.1969736 0.2729164 0.742 148 168 190 
0.2006026 0.2714452 0.738 148 168 190 
0.2041808 0.2699739 0.734 187 210 247 
0.207708 0.2685027 0.73 181 205 246 
0.2120572 0.2681349 0.729 174 198 237 
0.2163936 0.267767 0.728 170 193 230 
0.2204137 0.2670314 0.726 172 197 233 
0.2247183 0.2666636 0.725 175 200 236 
0.2290102 0.2662958 0.724 178 205 247 
0.2329667 0.2655602 0.7220001 180 207 249 
0.2372268 0.2651924 0.721 179 205 250 
0.2411389 0.2644567 0.719 184 210 255 
0.2446837 0.2633533 0.716 200 232 254 
0.2492348 0.2633533 0.716 207 243 253 
0.2537858 0.2633533 0.716 214 248 254 
0.2583368 0.2633533 0.716 216 255 252 
0.2632549 0.2637211 0.717 215 255 254 
0.2678123 0.2637211 0.717 222 255 252 
0.2719898 0.2633533 0.716 228 255 255 
0.2765408 0.2633533 0.716 227 255 253 
0.2806993 0.2629855 0.715 225 255 252 
0.2852439 0.2629855 0.715 221 255 251 
0.2901939 0.2633533 0.716 222 255 252 
0.2955682 0.2640889 0.7180001 222 255 252 
0.3013859 0.2651924 0.721 222 255 252 
0.3059687 0.2651924 0.721 224 255 253 
0.3105515 0.2651924 0.721 227 255 251 
0.3155714 0.2655602 0.7220001 227 255 251 
