ply
format ascii 1.0
element vertex 1189
property float32 x
property float32 y
property float32 z
property uchar red
property uchar green
property uchar blue
end_header
0.378549 -0.02453645 0.934 4 10 8 
0.4005727 -0.02443137 0.9300001 44 37 31 
0.4274107 -0.02461526 0.937 105 94 98 
0.4531599 -0.02472034 0.941 119 106 112 
-0.04352188 -0.01187168 0.481 246 255 255 
-0.03122757 -0.011847 0.48 167 126 136 
-0.0007478938 -0.01234062 0.5 130 101 107 
0.02128854 -0.0143398 0.581 71 48 47 
0.3736824 -0.0244838 0.992 3 6 5 
0.376787 -0.02312633 0.937 2 8 6 
0.3971896 -0.02292888 0.929 44 34 32 
0.4244328 -0.02312633 0.937 118 105 109 
0.4496909 -0.02320037 0.9400001 130 119 127 
-0.04495688 -0.01108426 0.48 245 255 255 
-0.03282128 -0.01110735 0.481 155 111 122 
-0.002341609 -0.0115692 0.501 122 95 100 
0.02132518 -0.01343966 0.582 72 46 46 
0.3565546 -0.02302293 0.997 4 7 6 
0.3754049 -0.02172977 0.941 2 8 6 
0.3946615 -0.02147575 0.9300001 39 32 26 
0.4210052 -0.0216143 0.936 114 103 109 
0.4462283 -0.02168358 0.9390001 143 132 140 
-0.04638552 -0.01030002 0.479 124 145 164 
-0.03442135 -0.01036453 0.482 120 74 84 
-0.005526047 -0.01077309 0.501 100 73 78 
0.007254889 -0.01083759 0.504 145 121 125 
0.3523227 -0.02137415 0.994 4 7 6 
0.3709941 -0.02032049 0.9450001 2 8 6 
0.3891683 -0.02001945 0.9310001 10 14 9 
0.4141689 -0.02008395 0.934 114 105 108 
0.4402599 -0.02019147 0.9390001 145 133 144 
0.4685822 -0.020385 0.9480001 152 141 147 
-0.03602777 -0.009618523 0.483 97 54 60 
-0.007118266 -0.009976977 0.501 83 59 63 
0.005653136 -0.01003672 0.504 152 127 135 
0.347397 -0.0198743 0.998 6 9 8 
0.3715605 -0.0193167 0.97 1 7 5 
0.3844856 -0.01859979 0.934 9 10 6 
0.4073581 -0.01855996 0.932 118 102 107 
0.4347539 -0.01871928 0.9400001 139 128 136 
0.4615807 -0.01883876 0.946 153 141 152 
-0.0390978 -0.008851015 0.483 78 57 68 
-0.02676217 -0.00883269 0.482 169 131 148 
0.000846194 -0.009217517 0.503 130 96 104 
0.03294818 -0.009254167 0.505 141 106 118 
0.3596158 -0.01810518 0.988 3 6 5 
0.3762028 -0.01728055 0.943 1 7 5 
0.3946615 -0.01704233 0.9300001 58 49 42 
0.4201056 -0.01711563 0.934 129 120 127 
0.4486044 -0.01729888 0.9440001 156 142 153 
-0.04505054 -0.008050037 0.481 246 255 255 
-0.03295775 -0.008083508 0.483 131 87 98 
-0.005537077 -0.008401494 0.502 94 65 71 
0.007269284 -0.008451701 0.505 147 122 130 
0.3456566 -0.01661889 0.993 4 7 6 
0.3720238 -0.0166691 0.9960001 3 6 5 
0.3831512 -0.01569841 0.938 7 10 9 
0.4035284 -0.01556452 0.9300001 106 91 92 
0.4317665 -0.01573188 0.9400001 142 133 140 
0.4585742 -0.0158323 0.946 162 148 159 
-0.03917875 -0.007331149 0.484 75 60 78 
-0.0268177 -0.007316001 0.483 167 125 139 
0.000846194 -0.007618941 0.503 131 96 108 
0.03294818 -0.007649235 0.505 149 111 124 
0.3528678 -0.01481377 0.978 4 8 3 
0.3773997 -0.01432906 0.946 1 7 5 
0.3946615 -0.01408671 0.9300001 76 64 64 
0.4201056 -0.0141473 0.934 136 125 133 
0.4495548 -0.01432906 0.946 158 146 157 
-0.04370284 -0.006548495 0.483 250 255 254 
-0.0314878 -0.006562053 0.484 144 100 111 
-0.003941679 -0.006806097 0.502 109 79 89 
0.008891788 -0.006860328 0.506 145 121 123 
0.3442642 -0.01340882 0.989 3 6 5 
0.3690357 -0.01339527 0.988 2 6 1 
0.3835597 -0.01273093 0.9390001 9 9 9 
0.4035284 -0.0126089 0.9300001 109 93 98 
0.4322259 -0.01275804 0.941 145 134 142 
0.4571199 -0.01278516 0.943 161 147 160 
-0.03771833 -0.005804926 0.485 83 55 66 
-0.02538737 -0.005804926 0.485 165 129 148 
0.00244963 -0.006032335 0.504 141 108 119 
0.03301343 -0.006056273 0.506 155 117 130 
0.3503422 -0.01162182 0.9710001 3 7 2 
0.3725645 -0.01135851 0.9490001 1 7 5 
0.3887503 -0.0111311 0.9300001 82 72 72 
0.4137255 -0.011167 0.933 132 121 125 
0.443073 -0.01131063 0.9450001 156 144 155 
0.4651222 -0.01126275 0.941 162 150 161 
-0.03161791 -0.005044621 0.486 138 97 107 
-0.005537077 -0.005210699 0.502 92 63 69 
0.007269284 -0.005241838 0.505 164 136 147 
0.3410536 -0.01035912 0.998 4 7 6 
0.3579827 -0.01012038 0.975 3 6 5 
0.3773997 -0.009819365 0.946 4 7 6 
0.3938127 -0.009632527 0.928 101 91 91 
0.4201056 -0.009694806 0.934 140 129 135 
0.4476539 -0.009777845 0.942 158 146 159 
-0.0408852 -0.004272347 0.486 246 255 255 
-0.02858751 -0.004281138 0.487 150 108 122 
-0.002350956 -0.004421792 0.503 124 96 105 
0.0281891 -0.004448164 0.506 138 104 112 
0.3428718 -0.008658975 0.9850001 3 6 5 
0.3679151 -0.008658975 0.9850001 2 5 4 
0.3805755 -0.008254597 0.9390001 11 12 8 
0.4005727 -0.008175479 0.9300001 112 99 105 
0.4274107 -0.008237015 0.937 146 133 139 
0.4526783 -0.008263388 0.9400001 160 148 161 
-0.03632614 -0.003507275 0.487 91 56 68 
-0.02414101 -0.003536082 0.491 158 128 151 
0.004059421 -0.003636907 0.505 157 127 139 
0.03301343 -0.003644109 0.506 156 118 131 
0.3486868 -0.007021752 0.975 4 7 6 
0.3692622 -0.006942532 0.964 3 6 5 
0.3819258 -0.00673368 0.9350001 25 17 14 
0.4043961 -0.006712074 0.932 117 104 110 
0.4303885 -0.006748084 0.937 146 135 143 
0.4546962 -0.006755285 0.938 159 145 158 
-0.03484983 -0.002739025 0.488 105 63 77 
-0.02276452 -0.002778314 0.495 184 176 194 
0.00245449 -0.002834442 0.505 147 114 125 
0.02341373 -0.0033003 0.588 82 45 42 
0.3445972 -0.005506114 0.9810001 3 6 5 
0.3740591 -0.005573466 0.993 2 5 4 
0.3797649 -0.005259152 0.937 23 23 17 
0.4010035 -0.005225476 0.9310001 112 99 105 
0.4255861 -0.005236701 0.933 146 135 141 
0.4517152 -0.005264765 0.938 160 148 159 
-0.03640074 -0.001963573 0.488 85 57 68 
-0.02423934 -0.001983691 0.493 158 127 146 
-0.0007553727 -0.002031976 0.505 134 104 114 
0.01402232 -0.002357897 0.586 61 57 60 
0.03468996 -0.002040023 0.507 166 126 139 
0.3532286 -0.003939216 0.979 3 6 5 
0.367212 -0.003794363 0.943 6 9 8 
0.3857946 -0.003742055 0.9300001 95 85 83 
0.4112006 -0.003758149 0.934 131 118 124 
0.4358786 -0.003766197 0.936 154 142 153 
0.4611494 -0.003778268 0.9390001 162 148 159 
-0.030259 -0.001190556 0.489 138 98 111 
-0.007175098 -0.00122951 0.505 85 61 65 
0.00567557 -0.001231945 0.506 165 135 149 
0.02150838 -0.001429153 0.587 72 46 46 
0.3442253 -0.002429805 0.998 3 6 5 
0.3681177 -0.002420066 0.994 3 6 5 
0.3754049 -0.002291028 0.941 17 18 12 
0.3955102 -0.002269116 0.932 109 97 97 
0.4178566 -0.002261812 0.929 145 132 140 
0.4448026 -0.002278855 0.936 159 147 158 
-0.03795164 -0.0004126688 0.488 73 79 110 
-0.02585848 -0.0004177426 0.494 154 119 133 
-0.002364978 -0.0004278902 0.506 122 93 99 
0.01052065 -0.0004287359 0.507 152 130 134 
0.03146739 -0.0004287359 0.507 145 106 115 
0.3526207 -0.000833794 0.9860001 3 6 5 
0.3720186 -0.0007948949 0.9400001 17 17 13 
0.3933906 -0.000789821 0.934 106 94 94 
0.4153508 -0.0007864386 0.9300001 142 129 135 
0.4404118 -0.0007889754 0.933 158 146 157 
0.4681127 -0.0007957405 0.941 160 147 155 
-0.02737293 0.0003665002 0.493 143 105 120 
-0.005581197 0.0003761645 0.506 93 64 68 
0.007298073 0.0003769079 0.507 167 137 151 
0.02337391 0.0004363806 0.587 85 45 46 
0.3509049 0.0007359741 0.9900001 1 7 5 
0.3720186 0.0006988036 0.9400001 19 19 15 
0.394233 0.00069583 0.936 106 94 94 
0.4149042 0.0006906262 0.929 142 129 135 
0.4394678 0.000692113 0.9310001 158 146 157 
0.4681127 0.0006995471 0.941 159 146 154 
-0.02591082 0.001154562 0.495 153 120 133 
-0.003980939 0.001182552 0.507 105 73 78 
0.008909361 0.001182552 0.507 166 136 146 
0.02523945 0.001369148 0.587 93 55 55 
0.3565546 0.002325452 0.997 1 7 5 
0.3720186 0.002192502 0.9400001 31 31 27 
0.3950754 0.002187837 0.938 106 94 94 
0.4149042 0.002166845 0.929 141 128 136 
0.4389957 0.002169178 0.9300001 161 147 158 
0.4681127 0.002194835 0.941 159 146 154 
-0.02596317 0.001945059 0.496 152 119 132 
-0.003988791 0.001992117 0.508 104 72 77 
0.008926934 0.001992117 0.508 166 136 148 
0.02523945 0.002301914 0.587 93 55 55 
0.3684636 0.003741101 0.9540001 24 25 21 
0.3857206 0.003674436 0.937 86 74 72 
0.4104177 0.003682279 0.9390001 119 106 112 
0.4287414 0.003635221 0.927 156 143 151 
0.4581652 0.003682279 0.9390001 161 147 158 
-0.02899842 0.002722202 0.494 134 96 109 
-0.007217722 0.00279935 0.508 75 56 80 
0.005698002 0.00279935 0.508 158 128 140 
0.02147174 0.003229171 0.586 71 48 47 
0.3734162 0.005416852 0.983 14 18 13 
0.3827428 0.005163368 0.937 80 68 66 
0.4083013 0.00518541 0.941 110 97 101 
0.4253359 0.005102752 0.9260001 156 143 151 
0.4542114 0.005163368 0.937 160 148 159 
-0.02905712 0.003514288 0.495 132 97 109 
-0.005614287 0.003613682 0.509 90 62 71 
0.007312468 0.003606583 0.508 166 136 148 
0.0233341 0.004160349 0.586 85 47 47 
0.3744358 0.007056974 0.994 13 16 15 
0.3771891 0.006659398 0.938 64 56 55 
0.4027476 0.006687797 0.942 109 96 100 
0.4194502 0.006574204 0.9260001 152 139 147 
0.444907 0.006602602 0.9300001 161 149 160 
-0.03207331 0.004283486 0.493 102 69 80 
-0.01973712 0.004326929 0.498 166 146 168 
0.002473931 0.004422504 0.509 141 111 121 
0.01771674 0.005082839 0.585 59 58 60 
0.03622965 0.004396439 0.506 166 126 139 
0.3700086 0.008323692 0.9580001 41 36 32 
0.3857206 0.008141231 0.937 90 77 81 
0.4099806 0.008149919 0.938 113 100 106 
0.4282789 0.008045656 0.9260001 154 140 151 
0.4567014 0.008132542 0.936 165 148 162 
-0.02759502 0.005107994 0.497 139 104 116 
-0.005625317 0.005241604 0.5100001 88 63 75 
0.007326862 0.005231326 0.509 163 133 145 
0.0233341 0.006022705 0.586 84 46 46 
0.08061437 0.005159382 0.502 135 90 93 
0.3703948 0.00985627 0.9590001 42 37 33 
0.3848973 0.009609606 0.9350001 90 77 81 
0.4099806 0.009640438 0.938 113 100 106 
0.4282789 0.009517107 0.9260001 155 139 148 
0.4557255 0.009599328 0.934 163 146 160 
-0.02606786 0.005909614 0.498 145 112 123 
-0.004004495 0.006052015 0.5100001 96 64 69 
0.008962079 0.006052015 0.5100001 166 136 148 
0.02519645 0.006953883 0.586 91 53 53 
0.08220977 0.005957081 0.502 144 96 100 
0.3711672 0.01140389 0.961 43 38 34 
0.384074 0.01107163 0.933 90 77 81 
0.4095435 0.01111909 0.937 111 100 106 
0.4282789 0.01098856 0.9260001 152 134 144 
0.4552376 0.01107163 0.933 160 146 157 
-0.0261202 0.006714412 0.499 144 111 122 
-0.004004495 0.006862426 0.5100001 95 64 66 
0.008962079 0.006862426 0.5100001 166 136 148 
0.02519645 0.007885061 0.586 91 53 53 
0.07901897 0.00675478 0.502 128 78 82 
0.3718967 0.01317317 0.979 37 34 29 
0.3781437 0.0125542 0.933 75 63 63 
0.4040185 0.01262148 0.938 107 98 103 
0.4228492 0.01247347 0.927 141 128 134 
0.4478626 0.01251383 0.9300001 160 146 157 
-0.03087779 0.007507343 0.499 105 77 86 
-0.01815444 0.007492299 0.498 171 149 167 
0.005731652 0.007687881 0.511 152 122 132 
0.02147174 0.008816239 0.586 67 50 50 
0.07597923 0.007567523 0.503 106 63 65 
0.3664274 0.01501469 0.998 10 14 9 
0.3725645 0.01427749 0.9490001 52 42 40 
0.3895863 0.01402173 0.932 72 63 66 
0.4137255 0.01403678 0.933 117 104 110 
0.4346336 0.01394651 0.927 156 140 149 
0.4601793 0.01400669 0.9310001 159 145 156 
-0.02453434 0.008300276 0.499 146 116 126 
-0.0007628517 0.008483248 0.5100001 114 80 88 
0.01225158 0.008516516 0.512 144 121 129 
0.03294818 0.008400078 0.505 148 111 120 
0.08061437 0.008350177 0.502 136 84 89 
0.3686621 0.01641758 0.987 28 25 20 
0.3738092 0.01558589 0.937 58 48 46 
0.3963589 0.01553599 0.934 71 62 67 
0.4183064 0.01546945 0.9300001 121 108 114 
0.4414761 0.01545282 0.929 139 122 134 
-0.03418599 0.009129653 0.501 69 75 106 
-0.02136261 0.009093206 0.499 156 128 139 
0.002478792 0.009293658 0.5100001 131 96 110 
0.01774703 0.01067859 0.586 59 58 62 
0.03673085 0.009348326 0.513 162 125 134 
0.08363823 0.009129653 0.501 148 95 107 
0.3519054 0.01793129 0.984 4 7 6 
0.3650487 0.01736639 0.9530001 47 37 35 
0.3815173 0.01702015 0.934 57 46 50 
0.4065657 0.01707482 0.937 60 49 55 
0.4262546 0.01691081 0.928 124 106 112 
0.4493639 0.01689259 0.927 151 135 142 
-0.02929193 0.009886137 0.499 101 73 84 
-0.01660503 0.009886137 0.499 169 144 156 
0.005731652 0.01012388 0.511 149 119 131 
0.02150838 0.01162958 0.587 63 55 52 
0.07393703 0.009905949 0.5 98 55 57 
0.08664936 0.009905949 0.5 165 121 130 
0.355612 0.01935623 0.9770001 9 12 11 
0.3691591 0.01878168 0.9480001 50 40 38 
0.3870391 0.0184845 0.933 55 44 48 
0.4125214 0.01856375 0.937 68 55 61 
0.4326188 0.01840525 0.929 152 131 142 
0.4552561 0.01836563 0.927 145 134 140 
-0.0261202 0.01067907 0.499 128 100 109 
-0.01346022 0.01070047 0.5 179 185 212 
0.007370046 0.01095728 0.512 158 128 140 
0.0233341 0.01254095 0.586 78 45 46 
0.07567713 0.01072187 0.501 106 58 62 
0.08841488 0.01072187 0.501 147 120 125 
0.3572483 0.02082312 0.973 20 23 22 
0.3713867 0.02024529 0.946 47 39 36 
0.3900043 0.01996708 0.933 64 55 58 
0.4146124 0.02000988 0.9350001 77 59 65 
0.4355713 0.01988147 0.929 149 131 141 
0.4591907 0.01988147 0.929 123 112 118 
-0.02458351 0.01149499 0.5 137 109 118 
-0.003980939 0.01165592 0.507 81 58 79 
0.009014796 0.01179386 0.513 162 132 144 
0.02523945 0.01349512 0.587 88 50 50 
0.07552607 0.01149499 0.5 106 58 62 
0.08841488 0.01151798 0.501 143 116 121 
0.3572483 0.02236925 0.973 22 26 21 
0.3713867 0.02174852 0.946 48 38 36 
0.3904223 0.02147264 0.934 83 73 73 
0.4146124 0.02149563 0.9350001 71 55 60 
0.4360401 0.02138068 0.9300001 148 130 138 
0.4596851 0.02138068 0.9300001 109 98 106 
-0.02458351 0.01228951 0.5 135 107 116 
-0.003980939 0.01246156 0.507 69 53 76 
0.009014796 0.01260904 0.513 163 133 145 
0.02519645 0.01440331 0.586 89 51 51 
0.07393703 0.01228951 0.5 99 54 57 
0.08664936 0.01228951 0.5 162 116 126 
0.3572483 0.02391539 0.973 24 28 23 
0.3709941 0.02322718 0.9450001 48 38 36 
0.3904223 0.02295681 0.934 88 78 78 
0.4146124 0.02298139 0.9350001 67 54 58 
0.4360401 0.02285849 0.9300001 147 129 137 
0.4606736 0.02290765 0.932 88 77 83 
-0.02463268 0.0131102 0.501 133 105 114 
-0.003980939 0.01326721 0.507 64 55 78 
0.009014796 0.01342422 0.513 162 132 144 
0.02519645 0.01533449 0.586 97 57 58 
0.07075895 0.01308403 0.5 89 49 50 
0.08363823 0.0131102 0.501 144 94 102 
0.3488124 0.02598489 0.993 3 6 5 
0.364265 0.02530452 0.9670001 45 40 36 
0.376787 0.02451948 0.937 59 51 48 
0.401465 0.02457181 0.9390001 90 82 81 
0.4208091 0.02431013 0.929 87 70 70 
0.4463421 0.0244148 0.933 90 69 76 
-0.03233354 0.01379528 0.497 169 191 217 
-0.01989565 0.01393407 0.502 149 114 128 
0.0008579701 0.01415612 0.5100001 105 68 75 
0.01393297 0.01426715 0.514 147 119 128 
0.03347014 0.01423939 0.513 144 109 121 
0.07711511 0.01387855 0.5 106 63 65 
0.2364917 0.02256653 0.813 212 199 188 
0.3529783 0.02739626 0.987 7 10 9 
0.366964 0.02659131 0.9580001 46 38 35 
0.3819258 0.02595289 0.9350001 72 64 63 
0.4083013 0.02611944 0.941 59 50 53 
0.4267139 0.02578635 0.929 103 82 89 
0.4532419 0.02595289 0.9350001 73 53 54 
-0.02776159 0.01467307 0.5 94 62 67 
-0.01510946 0.01473176 0.502 172 146 161 
0.00411569 0.01502523 0.512 128 100 109 
0.019509 0.0171088 0.583 75 62 68 
0.03510049 0.01505457 0.513 149 114 126 
0.07711511 0.01467307 0.5 107 64 66 
0.2362009 0.02382907 0.812 222 207 197 
0.3550327 0.02887661 0.984 9 12 11 
0.3680774 0.02796688 0.9530001 47 39 36 
0.3848973 0.02743865 0.9350001 58 48 48 
0.4108548 0.02758538 0.9400001 51 40 44 
0.4301289 0.02729192 0.9300001 130 109 116 
0.4571893 0.02749734 0.937 69 55 51 
-0.02929193 0.01543666 0.499 70 47 57 
-0.01673813 0.0155604 0.503 168 140 153 
0.002488513 0.01583881 0.512 112 80 87 
0.01559679 0.01593162 0.515 137 109 118 
0.03347014 0.01586975 0.513 151 118 131 
0.07567713 0.01549853 0.501 102 62 63 
0.2336203 0.02511937 0.812 218 208 196 
0.3561151 0.03053303 0.987 10 13 12 
0.3680774 0.02948123 0.9530001 49 41 38 
0.385309 0.02895533 0.936 50 40 40 
0.4108548 0.02907908 0.9400001 49 40 43 
0.4301289 0.02876972 0.9300001 133 113 116 
0.4576772 0.0290172 0.938 72 56 53 
-0.02929193 0.01622959 0.499 68 47 58 
-0.01673813 0.01635968 0.503 168 140 151 
0.004123729 0.01668493 0.513 121 91 101 
0.01726697 0.0167825 0.516 141 109 116 
0.03177771 0.0166524 0.512 149 119 131 
0.07249269 0.01629464 0.501 97 57 58 
0.08523044 0.01629464 0.501 150 102 110 
0.3537405 0.03245918 0.998 4 7 6 
0.3661986 0.03135335 0.964 47 40 34 
0.3805755 0.03054025 0.9390001 52 40 38 
0.4053107 0.0306053 0.941 43 45 53 
0.4242177 0.03024753 0.9300001 83 63 66 
0.4521967 0.03054025 0.9390001 72 52 53 
-0.04963651 0.01640848 0.481 144 99 116 
-0.02153386 0.01715897 0.503 141 113 122 
-0.0007643475 0.01743188 0.511 91 53 55 
0.01229944 0.01753422 0.514 177 149 162 
0.02541707 0.01756833 0.515 133 100 111 
0.03828643 0.01746599 0.512 164 134 144 
0.07726935 0.01709075 0.501 107 69 71 
0.2356191 0.02763175 0.8100001 208 199 190 
0.3605528 0.03349923 0.9820001 34 31 26 
0.3713867 0.03227115 0.946 64 55 50 
0.3920943 0.03199824 0.938 68 66 75 
0.4154992 0.03196413 0.937 66 51 50 
0.436509 0.03175945 0.9310001 145 127 135 
0.4656164 0.0321347 0.942 86 74 74 
-0.02929193 0.01781545 0.499 64 45 60 
-0.01680469 0.01802967 0.505 164 134 146 
0.005765302 0.01835098 0.514 135 105 117 
0.01887022 0.01838669 0.515 148 116 123 
0.03183978 0.01831528 0.513 152 122 134 
0.0711835 0.01795826 0.503 92 54 54 
0.08380517 0.01792256 0.502 141 93 101 
0.2459161 0.02891887 0.8100001 13 15 21 
0.3661986 0.03441703 0.964 50 41 36 
0.3813861 0.03359587 0.941 56 44 42 
0.4035878 0.03345306 0.937 59 61 69 
0.4246738 0.03323885 0.9310001 82 60 64 
0.4531599 0.03359587 0.941 72 57 58 
-0.04973971 0.01797443 0.482 143 96 112 
-0.0262249 0.01868297 0.501 87 55 62 
-0.01367558 0.018944 0.508 174 146 159 
0.00903237 0.01916775 0.514 159 129 141 
0.02218664 0.01924234 0.516 144 112 119 
0.03503207 0.01909317 0.512 160 130 142 
0.07438065 0.01875755 0.503 102 64 64 
0.08716926 0.01875755 0.503 103 76 81 
0.3590015 0.03710489 0.9950001 11 14 13 
0.3684636 0.03557595 0.9540001 64 53 48 
0.3865439 0.03501658 0.9390001 68 55 59 
0.4091064 0.0349047 0.936 68 57 65 
0.4301289 0.03468096 0.9300001 145 125 128 
0.4601169 0.03516574 0.943 54 52 61 
-0.04677287 0.01877923 0.483 168 123 138 
-0.02157667 0.01959572 0.504 143 115 124 
-0.002407043 0.0200234 0.515 79 50 56 
0.0106659 0.01998452 0.514 165 137 148 
0.02378035 0.0200234 0.515 145 113 120 
0.03665925 0.01990676 0.512 162 132 144 
0.07597923 0.01955684 0.503 106 68 70 
0.2350373 0.03141535 0.808 218 207 198 
0.3625627 0.0380639 0.979 41 36 32 
0.3739974 0.03674197 0.9450001 86 75 70 
0.394233 0.03639205 0.936 93 88 96 
0.4175839 0.03635317 0.9350001 72 57 58 
0.4404118 0.03627541 0.933 116 98 108 
0.4696051 0.03670309 0.9440001 57 50 59 
-0.04225514 0.01958721 0.484 158 128 140 
-0.01840962 0.02043706 0.505 152 119 130 
-0.005669437 0.02080129 0.514 124 139 152 
0.007413231 0.02084176 0.515 149 119 133 
0.02050693 0.02084176 0.515 145 110 122 
0.03340489 0.02072035 0.512 157 127 139 
0.07307146 0.02043706 0.505 97 57 60 
0.08557068 0.02035612 0.503 143 106 113 
0.3661986 0.03901253 0.964 51 42 37 
0.3813861 0.03808174 0.941 93 84 79 
0.4022956 0.03779845 0.934 101 94 103 
0.4246738 0.03767704 0.9310001 81 59 61 
0.4531599 0.03808174 0.941 95 102 106 
-0.0498429 0.02031424 0.483 132 86 98 
-0.0262249 0.0210713 0.501 79 50 56 
-0.01370251 0.02140776 0.509 169 141 152 
-0.0007733222 0.02174423 0.517 87 49 49 
0.01229944 0.02161806 0.514 168 143 153 
0.02541707 0.02166012 0.515 146 113 124 
0.03836121 0.021576 0.513 162 132 144 
0.07773203 0.02119747 0.504 110 72 76 
0.3599798 0.04159583 0.989 25 25 21 
0.3703273 0.03999761 0.951 80 66 62 
0.3886985 0.03940879 0.937 95 85 85 
0.4103201 0.0391985 0.932 96 85 91 
0.4326188 0.03907232 0.929 160 138 142 
0.4631138 0.03966114 0.943 43 51 66 
-0.04533152 0.0211254 0.484 163 119 130 
-0.01844607 0.02208564 0.506 143 113 123 
-0.005669437 0.02243482 0.514 121 131 138 
0.007413231 0.02247847 0.515 150 120 132 
0.02050693 0.02247847 0.515 143 110 121 
0.03347014 0.02239117 0.513 157 127 139 
0.07321616 0.02208564 0.506 92 52 55 
0.08591092 0.02204199 0.505 145 118 123 
0.3661986 0.0420762 0.964 51 42 37 
0.3813861 0.04107231 0.941 105 95 93 
0.4014342 0.04067948 0.932 108 99 106 
0.4242177 0.04059219 0.9300001 80 58 60 
0.4531599 0.04107231 0.941 105 104 111 
-0.0499461 0.02189449 0.484 120 76 85 
-0.02317842 0.02279922 0.504 108 79 83 
-0.01052891 0.02316112 0.512 173 145 156 
0.002517675 0.02343254 0.518 110 78 85 
0.01559679 0.02329683 0.515 154 129 141 
0.02863478 0.02325159 0.514 150 117 128 
0.0670477 0.02298017 0.508 80 40 43 
0.07949119 0.02284446 0.505 118 77 85 
0.36092 0.04446753 0.983 35 32 27 
0.3725645 0.04292949 0.9490001 89 78 73 
0.3916763 0.04238665 0.937 118 109 114 
0.4123952 0.04207 0.9300001 82 73 76 
0.4360401 0.04207 0.9300001 152 131 138 
0.466605 0.04270331 0.9440001 104 99 109 
-0.04379333 0.02266359 0.484 163 117 129 
-0.01532015 0.02383423 0.509 155 127 136 
-0.00241639 0.02420883 0.517 68 45 53 
0.01068666 0.02411518 0.515 157 132 142 
0.02378035 0.02411518 0.515 146 113 124 
0.03680245 0.02406836 0.514 162 129 142 
0.07321616 0.02369375 0.506 89 49 52 
0.08642128 0.0237874 0.508 97 76 85 
0.3653951 0.04542083 0.97 48 39 34 
0.3796019 0.04420336 0.9440001 107 95 95 
0.3988997 0.04368828 0.933 129 123 129 
0.4208091 0.04350098 0.929 72 55 57 
0.4482557 0.04387559 0.937 104 92 103 
-0.05148428 0.02343269 0.484 95 63 70 
-0.02322441 0.02444939 0.505 97 63 69 
-0.01054948 0.02483671 0.513 172 144 155 
0.002517675 0.02507878 0.518 120 91 97 
0.01559679 0.02493354 0.515 152 127 137 
0.02869049 0.02493354 0.515 148 118 128 
0.04186532 0.02498195 0.516 154 131 141 
0.07643238 0.02449781 0.506 104 64 69 
0.1058203 0.01471805 0.304 31 24 18 
0.3680979 0.04691378 0.969 51 42 37 
0.3817914 0.04560659 0.942 112 99 103 
0.4010035 0.04507403 0.9310001 129 124 132 
0.4233054 0.04492879 0.928 79 59 60 
0.4521967 0.04546135 0.9390001 110 96 107 
-0.0499461 0.02420178 0.484 100 63 70 
-0.0217051 0.02535187 0.507 117 82 94 
-0.008936505 0.02570189 0.514 174 146 157 
0.004155883 0.0258519 0.517 129 105 109 
0.0172335 0.0257519 0.515 144 116 129 
0.03026831 0.02570189 0.514 151 121 131 
0.06556203 0.02545187 0.509 80 40 45 
0.0780405 0.02530186 0.506 112 72 77 
0.1058203 0.01520112 0.304 31 24 18 
0.3684778 0.04850357 0.97 51 42 37 
0.3821967 0.04715347 0.943 113 101 101 
0.4010035 0.04655343 0.9310001 132 125 134 
0.4228492 0.04635341 0.927 79 59 62 
0.4521967 0.04695346 0.9390001 118 108 118 
-0.05004929 0.02502247 0.485 96 62 68 
-0.02487851 0.02610592 0.506 78 51 56 
-0.01217983 0.02646706 0.513 165 135 145 
0.0008697461 0.02667343 0.517 122 93 97 
0.01393297 0.02651866 0.514 154 129 139 
0.02700124 0.02651866 0.514 147 114 125 
0.04022543 0.02662184 0.516 156 126 138 
0.07482428 0.02610592 0.506 98 60 62 
0.08855565 0.02636388 0.511 48 53 60 
0.3641799 0.0503029 0.975 45 38 32 
0.3781976 0.0489099 0.9480001 109 94 93 
0.3967833 0.04823919 0.9350001 135 129 135 
0.4169571 0.04782645 0.927 80 60 63 
0.4429018 0.04808441 0.932 149 139 149 
-0.05313203 0.02579315 0.485 52 45 58 
-0.04080107 0.02579315 0.485 161 117 128 
-0.01859189 0.0271227 0.5100001 131 101 111 
-0.005680467 0.02738861 0.515 164 134 146 
0.007413231 0.02738861 0.515 147 119 128 
0.02050693 0.02738861 0.515 137 104 117 
0.03353538 0.02733542 0.514 160 127 140 
0.06879732 0.02706951 0.509 83 43 46 
0.0814173 0.02696315 0.507 136 97 104 
0.3627558 0.05254358 0.988 40 35 31 
0.3745274 0.0507354 0.9540001 92 77 76 
0.3929304 0.04999086 0.9400001 132 121 127 
0.410178 0.04919313 0.9250001 88 70 78 
0.4351024 0.04935267 0.928 151 130 137 
0.4675936 0.05030994 0.946 145 134 142 
-0.04388381 0.02656384 0.485 135 91 102 
-0.02179072 0.02787834 0.509 99 62 69 
-0.008953892 0.02820696 0.515 169 141 152 
0.004139806 0.02820696 0.515 134 109 117 
0.01720004 0.02815219 0.514 143 115 126 
0.03026831 0.02815219 0.514 150 117 130 
0.06556203 0.02787834 0.509 80 40 43 
0.07819473 0.0277688 0.507 119 75 84 
0.1067865 0.01665032 0.304 35 28 22 
0.3723259 0.05279905 0.964 66 56 54 
0.3881905 0.05164886 0.943 125 109 114 
0.4047356 0.05071776 0.9260001 112 91 100 
0.4282789 0.05071776 0.9260001 105 80 88 
0.4586531 0.05148455 0.9400001 155 145 155 
-0.04542518 0.02733452 0.485 117 72 87 
-0.02502601 0.02868716 0.509 86 80 95 
-0.01220357 0.02896896 0.514 159 134 144 
0.0008680638 0.02908168 0.516 132 102 112 
0.01393297 0.02896896 0.514 154 126 137 
0.02700124 0.02896896 0.514 143 110 121 
0.04038134 0.0291944 0.518 154 126 137 
0.07497215 0.02857444 0.507 100 62 66 
0.1048542 0.01713339 0.304 32 25 19 
0.3680979 0.05461268 0.969 52 43 38 
0.3834126 0.05331641 0.946 120 102 108 
0.4005727 0.05241465 0.9300001 126 113 121 
0.4210246 0.05202013 0.923 75 55 58 
0.4493073 0.05258373 0.933 150 138 151 
-0.04870795 0.02822111 0.487 95 62 73 
-0.03640074 0.02827905 0.488 172 158 181 
-0.01381019 0.02972778 0.513 150 125 135 
-0.0007718264 0.02990162 0.516 137 107 117 
0.01229944 0.02978572 0.514 156 128 139 
0.02536771 0.02978572 0.514 140 107 118 
0.03866032 0.02995957 0.517 155 125 137 
0.07174958 0.02938008 0.507 85 49 51 
0.08514071 0.02955393 0.5100001 86 77 82 
0.3653951 0.05621041 0.97 47 40 34 
0.3808082 0.05487759 0.947 112 94 100 
0.3988997 0.05406631 0.933 129 113 122 
0.4176383 0.05342887 0.9220001 72 52 55 
0.444907 0.05389246 0.9300001 163 145 155 
-0.05025568 0.02899497 0.487 76 55 62 
-0.03795164 0.02905451 0.488 163 125 142 
-0.01544054 0.03054295 0.513 138 110 121 
-0.002411717 0.03072157 0.516 141 111 123 
0.0106659 0.03060249 0.514 155 127 138 
0.02373417 0.03060249 0.514 137 104 115 
0.03694565 0.03072157 0.516 154 126 137 
0.07013829 0.03018573 0.507 84 46 48 
0.08335611 0.0303048 0.509 140 116 120 
0.3638064 0.05798994 0.974 44 40 33 
0.3781976 0.05644196 0.9480001 101 80 87 
0.3963589 0.05560842 0.934 129 111 121 
0.4142583 0.05483443 0.9210001 73 53 56 
0.4400505 0.05513212 0.9260001 161 140 149 
-0.05025568 0.02976883 0.487 71 53 61 
-0.03802941 0.02989109 0.489 162 124 139 
-0.01544054 0.03135813 0.513 136 108 117 
-0.002411717 0.03154152 0.516 141 111 123 
0.0106659 0.03141926 0.514 153 128 138 
0.02373417 0.03141926 0.514 134 104 114 
0.03701725 0.03160264 0.517 151 123 134 
0.07160806 0.03093025 0.506 86 48 50 
0.08514071 0.03117475 0.5100001 79 79 83 
0.3696453 0.05898752 0.965 58 49 44 
0.3839682 0.05745935 0.9400001 119 96 106 
0.4013588 0.05654244 0.9250001 113 95 105 
0.42258 0.05623681 0.92 83 61 65 
0.4513029 0.0569092 0.9310001 157 140 152 
-0.04570616 0.03060541 0.488 117 82 94 
-0.02200478 0.03223602 0.514 81 53 64 
-0.008953892 0.03229874 0.515 160 135 145 
0.004139806 0.03229874 0.515 142 112 122 
0.01720004 0.03223602 0.514 140 115 125 
0.0303272 0.03229874 0.515 142 107 119 
0.04417972 0.03286319 0.524 146 123 133 
0.07658344 0.03179701 0.507 114 75 82 
0.3620214 0.06183798 0.9860001 42 38 31 
0.3737422 0.05970563 0.952 81 64 66 
0.3904223 0.05857674 0.934 129 106 116 
0.4079608 0.05769872 0.92 79 61 67 
0.4318204 0.05776144 0.9210001 134 109 117 
0.4661107 0.05914119 0.943 161 147 158 
-0.03966444 0.03150947 0.49 156 116 129 
-0.01547064 0.03305279 0.514 129 104 112 
-0.002411717 0.03318141 0.516 138 110 121 
0.0106659 0.03305279 0.514 152 127 137 
0.02373417 0.03305279 0.514 131 101 111 
0.03708885 0.03331001 0.518 149 119 129 
0.068527 0.03260266 0.507 75 39 41 
0.08173847 0.03273127 0.509 142 113 119 
0.3653951 0.0623759 0.97 47 40 34 
0.3787976 0.06057535 0.942 105 82 90 
0.3959069 0.05954647 0.9260001 125 104 111 
0.4162793 0.05909634 0.919 60 43 43 
0.4415582 0.05935356 0.923 164 143 154 
-0.04880797 0.03215631 0.488 73 50 60 
-0.03662451 0.032354 0.491 161 126 142 
-0.01386403 0.03393545 0.515 135 110 120 
-0.0007718264 0.03400135 0.516 136 106 118 
0.01229944 0.03386956 0.514 150 125 135 
0.02541707 0.03393545 0.515 133 100 111 
0.03888465 0.03426493 0.52 142 117 127 
0.068527 0.0334083 0.507 73 37 39 
0.08189906 0.03360599 0.5100001 141 113 122 
0.3641799 0.06424673 0.975 46 39 33 
0.3754049 0.06200634 0.941 96 76 79 
0.3925397 0.06095203 0.9250001 124 101 109 
0.4129089 0.06049077 0.918 57 40 40 
0.4381496 0.06075435 0.9220001 153 128 140 
-0.05046207 0.03299925 0.489 40 44 56 
-0.03818495 0.03313422 0.491 156 118 133 
-0.01713745 0.03475381 0.515 108 79 85 
-0.004059459 0.03488878 0.517 143 118 128 
0.00903237 0.03468633 0.514 149 121 132 
0.02214364 0.03475381 0.515 128 100 111 
0.0354426 0.03495626 0.518 139 109 119 
0.04936335 0.03549613 0.526 154 148 152 
0.07673448 0.03428143 0.508 114 75 82 
0.3599798 0.06674081 0.989 37 35 27 
0.3707167 0.06424394 0.952 73 61 59 
0.3845501 0.06255686 0.927 119 96 104 
0.405037 0.06208448 0.92 81 63 69 
0.4270307 0.06188203 0.9170001 118 96 100 
0.4601672 0.06323169 0.937 158 140 150 
-0.04277896 0.03384536 0.49 130 95 107 
-0.01877417 0.03557217 0.515 94 66 75 
-0.005702527 0.03571031 0.517 147 122 132 
0.007413231 0.03557217 0.515 147 119 130 
0.02050693 0.03557217 0.515 131 103 114 
0.03379636 0.03577938 0.518 138 109 115 
0.04760101 0.03626289 0.525 143 122 129 
0.07174958 0.03501959 0.507 77 41 43 
0.08530765 0.03529588 0.511 119 132 143 
0.3677181 0.06686186 0.9680001 54 45 40 
0.3773331 0.06430619 0.9310001 106 83 91 
0.3966962 0.06361547 0.9210001 117 94 102 
0.4182878 0.06333918 0.9170001 68 48 49 
0.4449731 0.06382268 0.924 169 151 161 
-0.0473539 0.03455333 0.489 70 47 55 
-0.03499266 0.03462399 0.49 171 141 155 
-0.008988664 0.03653185 0.517 151 123 134 
0.004139806 0.03639052 0.515 143 110 123 
0.0172335 0.03639052 0.515 140 115 125 
0.03050386 0.03660251 0.518 136 104 111 
0.04417972 0.03702648 0.524 144 121 129 
0.06866216 0.0358959 0.508 67 36 36 
0.08205965 0.03610788 0.511 140 127 135 
0.364927 0.06903601 0.9770001 44 40 33 
0.3734102 0.06613889 0.936 95 75 78 
0.3908422 0.06507898 0.9210001 122 98 102 
0.4124591 0.06479634 0.9170001 58 41 41 
0.4367239 0.06493765 0.919 152 133 146 
-0.04880797 0.03525812 0.488 41 41 59 
-0.03662451 0.03547487 0.491 159 129 143 
-0.0122748 0.03735338 0.517 140 112 123 
0.0008697461 0.03735338 0.517 136 103 116 
0.01396008 0.03720888 0.515 146 121 131 
0.02721137 0.03742563 0.518 132 102 112 
0.04069317 0.03771463 0.522 138 115 125 
0.06556203 0.03677538 0.509 69 38 38 
0.07881165 0.03691988 0.511 124 91 102 
0.3616543 0.0711665 0.9850001 42 38 31 
0.3706015 0.06820424 0.9440001 83 66 68 
0.3845701 0.06647023 0.92 117 95 99 
0.407074 0.06632573 0.918 58 42 47 
0.4285384 0.06603673 0.914 127 108 121 
0.4646279 0.06791524 0.9400001 160 139 150 
-0.03982633 0.03632893 0.492 137 104 117 
-0.01391787 0.03817492 0.517 123 96 101 
-0.0007748179 0.03824876 0.518 138 105 118 
0.01232337 0.03802724 0.515 146 121 131 
0.02556513 0.03824876 0.518 130 102 113 
0.03895943 0.03847027 0.521 132 111 118 
0.05260649 0.03876563 0.525 145 141 146 
0.07541578 0.03765804 0.5100001 96 62 68 
0.3586407 0.07339626 0.994 36 34 26 
0.3684636 0.07044269 0.9540001 67 56 51 
0.3799574 0.06815367 0.923 111 91 94 
0.4021131 0.06793215 0.92 78 60 70 
0.4227288 0.06748912 0.914 88 70 76 
0.4542617 0.06874438 0.9310001 164 143 154 
-0.04130583 0.03703531 0.491 121 93 102 
-0.01229854 0.03907188 0.518 136 108 117 
0.0008697461 0.03899645 0.517 134 101 114 
0.01396008 0.03884559 0.515 146 121 131 
0.02726391 0.03914731 0.5190001 131 103 112 
0.04069317 0.03937359 0.522 140 122 130 
0.06419565 0.03854388 0.511 71 38 41 
0.0773387 0.03861931 0.512 112 80 87 
0.3627558 0.0745232 0.988 42 38 31 
0.3698164 0.07105349 0.942 84 67 69 
0.3845701 0.06939407 0.92 116 94 98 
0.407074 0.06924321 0.918 59 42 44 
0.4285384 0.0689415 0.914 121 103 113 
0.4646279 0.07090263 0.9400001 159 138 149 
-0.0366991 0.03789255 0.492 154 126 137 
-0.007359804 0.039895 0.518 147 119 130 
0.005776518 0.03966395 0.515 142 114 125 
0.01898014 0.039895 0.518 131 103 114 
0.03227424 0.04004904 0.52 133 105 114 
0.04593252 0.04043413 0.525 138 117 124 
0.06744365 0.03935588 0.511 70 42 41 
0.08106528 0.03966395 0.515 136 126 138 
0.3653005 0.07532299 0.978 44 40 33 
0.3730113 0.07201125 0.9350001 92 75 77 
0.3904178 0.07085598 0.92 119 97 101 
0.4115595 0.0704709 0.915 78 58 59 
0.4357736 0.07062494 0.9170001 145 126 139 
-0.04626812 0.03883157 0.494 47 41 58 
-0.03370834 0.03883157 0.494 164 136 147 
-0.004075163 0.04079673 0.5190001 142 114 123 
0.009049943 0.0404823 0.515 141 116 126 
0.02231563 0.04079673 0.5190001 129 101 112 
0.03557945 0.04087534 0.52 128 107 114 
0.0492695 0.04126837 0.525 128 103 111 
0.06342879 0.04071812 0.518 74 40 46 
0.07585939 0.04032509 0.513 99 72 77 
0.3621637 0.07821339 0.9950001 40 36 29 
0.3683802 0.07436167 0.946 76 61 60 
0.3816463 0.0723179 0.92 114 94 95 
0.4041565 0.07216069 0.918 60 39 48 
0.4247022 0.07168905 0.9120001 91 73 83 
0.4596761 0.07357561 0.936 162 139 151 
-0.03834049 0.03953636 0.493 136 108 117 
-0.009006049 0.04154124 0.518 143 118 126 
0.004139806 0.04130066 0.515 137 109 120 
0.01733389 0.04154124 0.518 134 109 119 
0.03062164 0.04170164 0.52 133 105 114 
0.04417972 0.04202242 0.524 142 121 130 
0.0577217 0.04218281 0.526 39 39 59 
0.06920281 0.04106007 0.512 70 42 41 
0.08302317 0.04146105 0.517 140 158 181 
0.3642992 0.07690744 0.9590001 57 48 43 
0.3765225 0.07450157 0.929 99 82 82 
0.3962655 0.07377981 0.92 107 86 93 
0.4164631 0.07321845 0.913 60 43 45 
0.4459363 0.07426099 0.9260001 148 131 143 
-0.04164233 0.04048333 0.495 105 80 90 
-0.01550074 0.04211902 0.515 116 87 93 
-0.002421064 0.04236437 0.518 142 114 123 
0.01068666 0.04211902 0.515 141 116 124 
0.02401123 0.04252794 0.52 133 105 116 
0.03730365 0.04260973 0.521 132 116 123 
0.050938 0.04293686 0.525 121 91 101 
0.06355125 0.04244616 0.5190001 73 42 44 
0.07615515 0.04211902 0.515 103 78 86 
0.3633034 0.08023059 0.9810001 49 42 36 
0.3716228 0.07679565 0.9390001 84 70 66 
0.3879152 0.07532352 0.9210001 120 98 100 
0.4090982 0.0749146 0.9160001 83 64 62 
0.4319151 0.07483281 0.915 117 104 110 
0.4686102 0.07704099 0.942 165 144 155 
-0.03534973 0.0412699 0.495 143 115 124 
-0.01225106 0.04302074 0.516 135 110 118 
0.0008680638 0.04302074 0.516 136 108 117 
0.01398719 0.04302074 0.516 142 117 125 
0.02736897 0.04343761 0.521 131 103 112 
0.04069317 0.04352098 0.522 140 124 133 
0.05437836 0.04385448 0.526 107 83 87 
0.06633487 0.04293737 0.515 70 42 41 
0.08004549 0.04327087 0.5190001 137 127 139 
0.3612514 0.07995522 0.9590001 52 43 38 
0.3763849 0.07803763 0.936 92 76 73 
0.3937692 0.07678702 0.9210001 117 96 103 
0.4140145 0.07620341 0.914 45 27 37 
0.4410798 0.0768704 0.9220001 115 94 105 
-0.04506008 0.04231137 0.498 162 172 179 
-0.03233354 0.0422264 0.497 149 119 131 
-0.008971278 0.04384069 0.516 142 117 125 
0.004131767 0.04367077 0.514 137 109 118 
0.01733389 0.04401062 0.518 128 103 111 
0.03068053 0.0442655 0.521 131 106 114 
0.04417972 0.04452039 0.524 143 122 133 
0.05783144 0.04477528 0.527 96 84 82 
0.06947313 0.04367077 0.514 70 42 41 
0.08350493 0.04418054 0.52 148 168 190 
0.3631334 0.08054453 0.9480001 62 51 46 
0.3798834 0.0790152 0.9300001 102 86 83 
0.3991893 0.07816557 0.92 81 63 73 
0.4193647 0.07757083 0.913 54 41 45 
0.4527572 0.07935505 0.934 164 143 152 
-0.04189471 0.04310271 0.498 76 59 71 
-0.02929193 0.04318926 0.499 170 140 152 
-0.005691498 0.04466064 0.516 145 117 126 
0.007398835 0.04448753 0.514 140 115 123 
0.02070602 0.04500684 0.52 128 103 111 
0.03399209 0.04509339 0.521 125 104 111 
0.04760101 0.0454396 0.525 140 112 121 
0.06094896 0.0454396 0.525 46 36 36 
0.07288172 0.04457409 0.515 83 56 59 
0.3620214 0.0853399 0.9860001 45 38 32 
0.3694238 0.08144508 0.941 76 64 62 
0.3858242 0.07988714 0.923 113 96 96 
0.4066305 0.07936783 0.9170001 63 41 43 
0.4294761 0.07928129 0.9160001 109 93 98 
0.4656164 0.08153162 0.942 169 148 157 
-0.03707206 0.04380591 0.497 124 99 107 
-0.01383711 0.0453043 0.514 132 103 109 
-0.0007703307 0.04539244 0.515 142 117 125 
0.0123473 0.04548058 0.516 138 115 123 
0.02571319 0.04592128 0.521 131 108 116 
0.03895943 0.04592128 0.521 136 120 129 
0.05270669 0.04636199 0.526 120 91 95 
0.0653263 0.04583315 0.52 73 42 42 
0.07884922 0.04600943 0.522 131 117 130 
0.3589912 0.08399805 0.9530001 54 45 40 
0.3775913 0.08276408 0.9390001 87 73 69 
0.3946243 0.08135383 0.923 120 103 105 
0.4140145 0.08056056 0.914 60 43 45 
0.4434718 0.0817064 0.927 138 115 123 
-0.04515056 0.04477512 0.499 122 132 146 
-0.0323986 0.04468539 0.498 142 112 122 
-0.0170709 0.04603133 0.513 117 88 106 
-0.004043755 0.0462108 0.515 147 119 128 
0.009049943 0.0462108 0.515 138 115 123 
0.02235863 0.04665945 0.52 130 107 115 
0.03564787 0.04674917 0.521 125 109 116 
0.0492695 0.0471081 0.525 134 102 109 
0.0623789 0.04692863 0.523 70 39 39 
0.07509722 0.04656972 0.5190001 105 82 92 
0.3593242 0.08631998 0.9620001 52 43 38 
0.3766018 0.08470484 0.9440001 81 70 65 
0.3916909 0.08282051 0.923 121 104 106 
0.4115595 0.08210267 0.915 59 42 44 
0.4376744 0.08264106 0.9210001 146 125 134 
-0.04524104 0.04565937 0.5 210 220 225 
-0.0323986 0.04547673 0.498 139 109 119 
-0.01870126 0.04684652 0.513 122 93 113 
-0.005680467 0.04702916 0.515 148 118 128 
0.007413231 0.04702916 0.515 139 114 122 
0.02070602 0.04748575 0.52 129 106 114 
0.03399209 0.04757707 0.521 123 102 109 
0.04751034 0.04785103 0.524 143 113 123 
0.06083287 0.04785103 0.524 60 37 32 
0.07330627 0.04730311 0.518 92 69 77 
0.3585772 0.087666 0.96 53 44 39 
0.3770007 0.08629622 0.9450001 81 70 65 
0.3921153 0.08437852 0.924 121 104 104 
0.4120093 0.08364797 0.9160001 67 55 55 
0.4376744 0.08410457 0.9210001 153 132 139 
-0.04524104 0.04645389 0.5 192 203 212 
-0.0323986 0.04626808 0.498 136 108 117 
-0.02029198 0.04756879 0.512 151 122 138 
-0.00731718 0.04784751 0.515 150 120 130 
0.005776518 0.04784751 0.515 140 115 123 
0.01905342 0.04831205 0.52 128 103 111 
0.03239837 0.04849786 0.522 123 102 109 
0.04575753 0.04859077 0.523 148 120 131 
0.05928046 0.04877659 0.525 70 45 38 
0.07166003 0.04812623 0.518 85 61 63 
0.3620214 0.09160708 0.9860001 47 39 36 
0.3739974 0.08779786 0.9450001 75 66 61 
0.3891788 0.08584679 0.924 115 98 98 
0.4095449 0.08519644 0.9170001 80 68 68 
0.4342753 0.08547516 0.92 150 133 135 
0.4656254 0.08696169 0.936 168 152 159 
-0.0323986 0.04705942 0.498 134 106 115 
-0.02029198 0.04838238 0.512 166 138 151 
-0.00731718 0.04866587 0.515 151 121 133 
0.005787735 0.04876037 0.516 139 116 124 
0.01905342 0.04913835 0.52 127 104 112 
0.03239837 0.04932734 0.522 119 98 107 
0.04575753 0.04942184 0.523 145 117 128 
0.05928046 0.04961083 0.525 78 51 45 
0.07179837 0.04904386 0.5190001 89 65 69 
0.3620214 0.09317388 0.9860001 47 39 36 
0.3698164 0.08901601 0.942 72 63 58 
0.3866602 0.08740957 0.9250001 108 92 89 
0.407074 0.08674809 0.918 94 79 80 
0.4308827 0.08684258 0.919 148 133 134 
0.4616621 0.08826003 0.934 171 155 160 
-0.0323986 0.04785076 0.498 130 102 111 
-0.02033161 0.04929205 0.513 171 143 156 
-0.00731718 0.04948422 0.515 151 121 133 
0.005787735 0.04958031 0.516 140 117 125 
0.01905342 0.04996465 0.52 129 106 114 
0.03239837 0.05015682 0.522 118 97 106 
0.04575753 0.05025291 0.523 138 110 121 
0.05928046 0.05044508 0.525 84 52 48 
0.07193671 0.04996465 0.52 92 67 75 
0.3627558 0.09493283 0.988 45 40 36 
0.3698164 0.09051289 0.942 72 63 58 
0.3870782 0.08897551 0.9260001 108 92 89 
0.407074 0.08820683 0.918 95 83 83 
0.4313515 0.08839899 0.92 149 134 135 
0.4611679 0.08964811 0.933 172 156 161 
-0.0323986 0.04864211 0.498 125 100 108 
-0.02033161 0.05010723 0.513 172 144 155 
-0.00731718 0.05030258 0.515 151 121 133 
0.005798951 0.05049793 0.517 140 117 127 
0.01905342 0.05079095 0.52 129 106 114 
0.03246044 0.05108397 0.523 118 97 106 
0.04575753 0.05108397 0.523 132 102 112 
0.05928046 0.05127933 0.525 93 57 57 
0.07193671 0.05079095 0.52 94 69 77 
0.3627558 0.09650281 0.988 49 41 38 
0.3694238 0.09191209 0.941 71 62 57 
0.3870782 0.09044697 0.9260001 106 90 87 
0.407074 0.08966557 0.918 100 85 86 
0.4313515 0.08986092 0.92 148 135 139 
0.4606736 0.09103302 0.932 172 156 161 
-0.02935063 0.04963197 0.5 141 111 121 
-0.01710417 0.05102167 0.514 146 121 131 
-0.004051607 0.0512202 0.516 152 122 134 
0.00910266 0.05141872 0.518 143 122 131 
0.02240162 0.05171652 0.521 128 107 114 
0.03578471 0.05191504 0.523 119 101 109 
0.04917566 0.05201431 0.524 141 106 118 
0.06249818 0.05201431 0.524 89 56 57 
0.0755313 0.05181578 0.522 122 99 109 
0.3600712 0.09569044 0.964 54 45 40 
0.3754049 0.09340738 0.941 73 64 59 
0.392964 0.09191842 0.9260001 114 98 95 
0.4124591 0.09102504 0.9170001 105 90 91 
0.4381496 0.09152136 0.9220001 158 142 147 
-0.03707206 0.05012393 0.497 56 59 76 
-0.02512435 0.05153588 0.511 160 125 137 
-0.01225106 0.05204014 0.516 145 112 125 
0.0008697461 0.05214099 0.517 148 123 133 
0.01409561 0.05244355 0.52 130 112 120 
0.0274215 0.05264526 0.522 118 97 106 
0.04077112 0.05274611 0.523 122 101 110 
0.05427498 0.05294782 0.525 144 112 119 
0.06723651 0.05264526 0.522 82 54 55 
0.08127933 0.05314952 0.527 158 142 149 
0.360069 0.09480181 0.9400001 62 51 46 
0.3807004 0.09399498 0.932 86 75 70 
0.400491 0.09308731 0.923 109 97 97 
0.421202 0.09248219 0.9170001 147 130 132 
0.4498487 0.09359157 0.928 165 144 153 
-0.03233354 0.05091369 0.497 102 79 89 
-0.02037124 0.0526552 0.514 172 147 157 
-0.007331388 0.05286009 0.516 152 119 132 
0.005821385 0.05316742 0.5190001 139 118 127 
0.01909006 0.0533723 0.521 128 107 114 
0.03252251 0.05367963 0.524 113 95 103 
0.04575753 0.05357718 0.523 118 88 98 
0.05928046 0.05378207 0.525 109 72 79 
0.07221339 0.05347474 0.522 101 73 82 
0.3605528 0.1005981 0.9820001 47 40 34 
0.368246 0.09609062 0.938 69 60 55 
0.3874962 0.09496377 0.927 101 85 82 
0.407074 0.09404179 0.918 102 87 88 
0.4318204 0.09434912 0.9210001 156 139 141 
0.4611679 0.09557841 0.933 169 153 158 
-0.02815025 0.05274375 0.507 134 106 115 
-0.01550074 0.053576 0.515 149 121 132 
-0.00241639 0.05378406 0.517 155 125 137 
0.01079041 0.05409616 0.52 134 116 124 
0.02405741 0.05420019 0.521 121 103 111 
0.03751845 0.05451228 0.524 120 102 110 
0.05084097 0.05451228 0.524 133 98 110 
0.06404104 0.05440824 0.523 87 56 58 
0.07763389 0.05461631 0.525 143 118 128 
0.3578612 0.09882952 0.95 59 48 43 
0.376787 0.09747711 0.937 77 66 61 
0.3963345 0.0964368 0.927 108 91 91 
0.4153734 0.09539649 0.9170001 119 99 102 
0.4429934 0.09633277 0.9260001 155 139 144 
-0.03542114 0.05238758 0.496 116 126 142 
-0.02359232 0.05418312 0.513 157 124 135 
-0.01063173 0.0546056 0.517 148 115 128 
0.002517675 0.05471122 0.518 145 122 134 
0.0157785 0.05502808 0.521 129 111 119 
0.02919188 0.05534494 0.524 113 95 103 
0.04243326 0.05523932 0.523 119 98 107 
0.05594347 0.05545056 0.525 141 106 118 
0.06889547 0.0551337 0.522 98 71 76 
0.0834264 0.05597866 0.53 20 13 33 
0.359686 0.09917729 0.9390001 64 53 48 
0.3811089 0.09854356 0.933 85 71 67 
0.4009249 0.09759298 0.924 95 85 85 
0.4221207 0.09706488 0.919 142 124 130 
0.4508182 0.09822671 0.9300001 158 145 149 
-0.03124907 0.05414062 0.505 91 68 76 
-0.01877417 0.05521271 0.515 164 136 145 
-0.005713557 0.05553434 0.518 151 121 133 
0.007485204 0.05574876 0.52 142 121 132 
0.02074584 0.05585597 0.521 128 110 118 
0.03425306 0.0562848 0.525 115 99 106 
0.04741967 0.05607038 0.523 115 85 95 
0.06083287 0.0561776 0.524 124 92 99 
0.07401386 0.05607038 0.523 122 97 107 
0.3577959 0.1053866 0.983 44 40 33 
0.3648756 0.100455 0.937 69 57 55 
0.3857946 0.09970451 0.9300001 92 78 74 
0.405037 0.09863242 0.92 93 81 81 
0.429359 0.09884684 0.9220001 139 118 127 
0.459185 0.1002406 0.9350001 163 145 151 
-0.02522268 0.05581347 0.513 140 107 118 
-0.0122748 0.05624867 0.517 150 120 130 
0.0008731108 0.05646627 0.5190001 155 132 142 
0.01414983 0.05679266 0.522 135 117 125 
0.02752656 0.05701026 0.524 115 97 105 
0.04084908 0.05701026 0.524 119 101 109 
0.0541716 0.05701026 0.524 135 97 110 
0.06736531 0.05690145 0.523 101 73 82 
0.08158779 0.05755425 0.529 158 140 148 
0.3582378 0.1034671 0.951 58 49 44 
0.376787 0.1019439 0.937 75 63 61 
0.3963345 0.1008559 0.927 92 77 76 
0.4162793 0.09998554 0.919 95 67 76 
0.4439502 0.1009647 0.928 153 138 139 
-0.03143471 0.05607671 0.508 70 52 60 
-0.01877417 0.05684943 0.515 156 126 136 
-0.005724588 0.05729098 0.5190001 151 121 133 
0.007499598 0.05751175 0.521 137 116 125 
0.02078566 0.05762213 0.522 127 109 117 
0.03425306 0.0579533 0.525 114 98 105 
0.04741967 0.05773252 0.523 120 92 101 
0.06083287 0.05784291 0.524 136 108 117 
0.07415538 0.05784291 0.524 124 101 111 
0.35634 0.1080691 0.979 43 41 33 
0.365265 0.1035432 0.938 70 58 56 
0.3866243 0.1028809 0.932 93 79 75 
0.405037 0.1015562 0.92 73 52 59 
0.4298247 0.1018874 0.923 122 94 103 
0.4601672 0.1034328 0.937 164 144 147 
-0.02527185 0.05755581 0.514 125 95 105 
-0.0122748 0.05789173 0.517 152 122 132 
0.0008731108 0.05811569 0.5190001 156 135 144 
0.01414983 0.05845162 0.522 136 120 127 
0.02757909 0.05878755 0.525 113 97 104 
0.04092704 0.05878755 0.525 120 104 111 
0.0541716 0.05867557 0.524 131 98 109 
0.06736531 0.05856359 0.523 110 85 93 
0.08174203 0.05934743 0.53 159 141 149 
0.3589912 0.1067134 0.9530001 59 50 45 
0.3771891 0.1050337 0.938 72 62 60 
0.396762 0.103914 0.928 59 38 47 
0.4167323 0.1030182 0.92 80 47 58 
0.444907 0.1041379 0.9300001 146 134 134 
-0.0317441 0.05825901 0.513 47 36 42 
-0.01873771 0.05837257 0.514 147 115 122 
-0.005724588 0.0589404 0.5190001 156 128 139 
0.007499598 0.05916753 0.521 135 114 123 
0.02082548 0.05939466 0.523 128 110 118 
0.03425306 0.05962179 0.525 113 97 104 
0.04751034 0.05950823 0.524 120 92 101 
0.06083287 0.05950823 0.524 140 112 121 
0.0742969 0.05962179 0.525 132 111 122 
0.355976 0.1110669 0.978 44 40 33 
0.3660438 0.1067514 0.9400001 68 59 54 
0.3870391 0.1059564 0.933 100 84 81 
0.405037 0.1044801 0.92 68 43 53 
0.4302904 0.1049343 0.924 107 67 82 
0.4616405 0.1067514 0.9400001 159 142 144 
-0.0236843 0.0593045 0.515 126 91 103 
-0.01063173 0.0595348 0.517 152 122 134 
0.002527396 0.05988027 0.52 154 133 142 
0.01583907 0.06022573 0.523 134 116 124 
0.02924759 0.06045604 0.525 105 87 95 
0.0425144 0.06034089 0.524 118 102 109 
0.05583692 0.06034089 0.524 134 104 114 
0.06915944 0.06034089 0.524 121 96 106 
0.08374122 0.06126212 0.532 16 12 31 
0.3608803 0.1093966 0.95 61 52 47 
0.3805755 0.1081299 0.9390001 73 63 61 
0.3988498 0.1066329 0.9260001 62 41 50 
0.4205685 0.1061723 0.9220001 115 85 95 
0.4493073 0.107439 0.933 119 106 110 
-0.02864996 0.06023959 0.516 75 51 55 
-0.01550074 0.06012285 0.515 152 120 127 
-0.002430412 0.06070657 0.52 157 129 140 
0.01083191 0.06094005 0.522 140 122 130 
0.02428828 0.06140703 0.526 121 105 112 
0.03766165 0.06140703 0.526 118 102 109 
0.05074394 0.0610568 0.523 124 96 105 
0.06416349 0.06117354 0.524 141 116 128 
0.0780775 0.06164051 0.528 146 123 135 
0.3599703 0.1134746 0.9720001 48 44 37 
0.3720186 0.1097388 0.9400001 68 58 56 
0.3917059 0.1085714 0.9300001 111 92 90 
0.4108847 0.1074039 0.92 88 55 66 
0.4375796 0.1082211 0.927 122 92 106 
0.4706001 0.1104393 0.946 157 148 153 
-0.02037124 0.06082287 0.514 134 104 114 
-0.007374012 0.06141454 0.5190001 155 125 137 
0.005843818 0.0616512 0.521 145 124 133 
0.01923663 0.06212453 0.525 133 115 123 
0.03264664 0.06224286 0.526 105 89 96 
0.04584502 0.0620062 0.524 116 93 103 
0.05916755 0.0620062 0.524 142 114 123 
0.07262841 0.06212453 0.525 133 117 126 
0.3553935 0.1165575 0.9850001 44 37 31 
0.3646013 0.1117058 0.9440001 66 57 52 
0.3844856 0.1105225 0.934 88 76 74 
0.4025503 0.1089842 0.9210001 70 47 55 
0.4268914 0.1092208 0.923 127 98 114 
0.4581652 0.1111142 0.9390001 146 126 127 
-0.02373029 0.06187949 0.516 106 76 86 
-0.01061117 0.06187949 0.516 157 127 137 
0.002527396 0.06235917 0.52 155 132 142 
0.01586936 0.06283886 0.524 136 118 126 
0.02935901 0.06319862 0.527 102 86 93 
0.0425144 0.06283886 0.524 119 101 109 
0.05583692 0.06283886 0.524 134 106 115 
0.06915944 0.06283886 0.524 130 109 120 
0.08389863 0.06391815 0.5330001 23 21 32 
0.3627797 0.114525 0.955 58 51 45 
0.3797649 0.1123664 0.937 74 64 62 
0.3984191 0.1109274 0.9250001 78 61 63 
0.4201123 0.1104477 0.9210001 118 88 100 
0.4497889 0.1120067 0.934 109 91 99 
-0.02706242 0.06282094 0.517 62 40 42 
-0.01386403 0.06257792 0.515 151 121 131 
-0.0007778096 0.06318547 0.52 157 132 142 
0.0125148 0.06355 0.523 142 124 134 
0.02600931 0.06403604 0.527 119 101 109 
0.03925855 0.06379303 0.525 117 104 110 
0.05250629 0.06367151 0.524 129 101 110 
0.06582881 0.06367151 0.524 147 124 136 
0.08020868 0.06452209 0.531 149 128 139 
0.3627582 0.1170146 0.9630001 49 45 38 
0.3771891 0.1139769 0.938 71 61 59 
0.3959069 0.1125187 0.9260001 86 66 69 
