ply
format ascii 1.0
element vertex 1247
property float32 x
property float32 y
property float32 z
property uchar red
property uchar green
property uchar blue
end_header
0.2065475 0.1947832 0.588 174 200 227 
0.2102849 0.1947832 0.588 194 233 253 
0.2143864 0.1951144 0.589 206 250 255 
0.2181301 0.1951144 0.589 190 226 250 
0.2218739 0.1951144 0.589 171 199 230 
0.2252346 0.1947832 0.588 167 192 215 
0.2285827 0.1944519 0.587 190 220 252 
0.2327095 0.1947832 0.588 201 246 255 
0.236849 0.1951144 0.589 193 238 249 
0.2410013 0.1954457 0.59 195 234 254 
0.2451663 0.195777 0.591 210 251 255 
0.2493439 0.1961082 0.592 212 255 255 
0.2535343 0.1964395 0.5930001 201 240 255 
0.2573036 0.1964395 0.5930001 167 196 224 
0.261513 0.1967708 0.594 172 204 226 
0.2661818 0.1974333 0.596 202 246 251 
0.270423 0.1977645 0.597 220 255 255 
0.2742177 0.1977645 0.597 212 255 253 
0.278478 0.1980958 0.598 194 227 254 
0.282279 0.1980958 0.598 174 201 239 
0.2865584 0.1984271 0.599 193 235 254 
0.2913352 0.1990896 0.601 216 255 255 
0.2956464 0.1994209 0.6020001 222 255 254 
0.2999702 0.1997522 0.603 196 230 250 
0.3048106 0.2004147 0.605 135 155 177 
-0.2751417 0.2296686 0.6900001 0 2 1 
-0.2699711 0.2290028 0.688 6 25 27 
-0.2636679 0.2273386 0.683 8 22 26 
-0.2570485 0.2253415 0.677 13 30 35 
-0.250132 0.2230115 0.67 5 22 27 
-0.2436715 0.2210144 0.664 9 23 29 
-0.237648 0.2193501 0.659 12 29 34 
-0.2327507 0.2186844 0.657 11 30 34 
-0.2278789 0.2180187 0.655 29 50 58 
-0.2230325 0.217353 0.6530001 35 59 71 
-0.2185467 0.2170201 0.652 42 66 80 
-0.2140737 0.2166873 0.651 46 70 84 
-0.2102583 0.2170201 0.652 52 74 88 
-0.2067463 0.2176858 0.654 51 73 87 
-0.2038285 0.2190173 0.6580001 55 77 91 
-0.2011632 0.2206815 0.663 52 74 88 
-0.1981373 0.2220129 0.6670001 49 73 87 
-0.1950605 0.2233443 0.671 48 72 86 
-0.1910799 0.2236772 0.6720001 56 79 96 
-0.1870866 0.2240101 0.673 61 84 101 
-0.1833521 0.2246757 0.675 57 80 97 
-0.1803881 0.22634 0.68 57 80 97 
-0.1771016 0.2276714 0.684 60 86 102 
-0.1732591 0.2283372 0.686 53 81 96 
-0.169145 0.22867 0.687 59 87 104 
-0.1650181 0.2290028 0.688 58 89 105 
-0.1613456 0.2300014 0.691 57 88 104 
-0.1576349 0.231 0.694 58 91 106 
-0.1552107 0.2339956 0.703 57 90 105 
-0.1520289 0.2359928 0.7090001 59 90 106 
-0.1483547 0.2373242 0.7130001 59 90 106 
-0.1448313 0.2389884 0.7180001 57 88 104 
-0.1412444 0.2406527 0.723 56 87 103 
-0.1370269 0.2413184 0.725 54 85 101 
-0.132784 0.2419841 0.7270001 54 85 99 
-0.1285156 0.2426498 0.729 54 85 99 
-0.1245617 0.2439812 0.733 54 85 99 
-0.1208841 0.2459783 0.739 53 84 98 
-0.1168158 0.2473098 0.743 51 82 96 
-0.1126966 0.2486412 0.747 50 83 96 
-0.1086711 0.2503054 0.752 47 82 97 
-0.1044439 0.2516369 0.756 45 76 90 
-0.100034 0.2526354 0.7590001 46 77 91 
-0.09558602 0.253634 0.762 49 80 94 
-0.09121897 0.2549654 0.766 53 84 98 
-0.08680107 0.2562968 0.77 52 85 98 
-0.08233231 0.2576282 0.774 55 88 101 
-0.07761267 0.2582939 0.776 57 90 103 
-0.07277395 0.2586268 0.777 55 90 105 
-0.007719472 0.1477867 0.444 44 71 84 
-0.004864245 0.1467882 0.441 22 33 31 
-0.002033133 0.1447911 0.435 21 25 20 
0.0007233865 0.1431268 0.43 24 25 19 
0.003416345 0.1414625 0.425 29 30 24 
0.006074531 0.140464 0.422 39 39 33 
0.00869458 0.1394654 0.419 54 51 48 
0.0113036 0.1387997 0.417 67 64 61 
0.01392066 0.1384668 0.416 69 69 65 
0.01656482 0.1384668 0.416 76 75 75 
0.01920898 0.1384668 0.416 87 86 86 
0.02185315 0.1384668 0.416 99 95 96 
0.02443842 0.138134 0.415 107 103 106 
0.02714148 0.1384668 0.416 119 118 122 
0.02985724 0.1387997 0.417 129 128 132 
0.03266367 0.1394654 0.419 133 133 137 
0.03541122 0.1397983 0.42 140 140 144 
0.03826214 0.140464 0.422 144 144 148 
0.04104147 0.1407968 0.423 149 149 153 
0.04393689 0.1414625 0.425 152 152 156 
0.04685773 0.1421282 0.427 157 157 161 
0.04957182 0.1421282 0.427 160 160 164 
0.0522859 0.1421282 0.427 162 161 165 
0.1188875 0.3072233 0.923 44 48 60 
0.1250246 0.307889 0.9250001 30 43 54 
0.1604674 0.2086988 0.627 123 139 147 
0.1639281 0.2080331 0.625 132 149 161 
0.1670948 0.2070346 0.622 99 116 128 
0.1691234 0.2047046 0.615 99 112 121 
0.1699375 0.2010432 0.604 93 102 112 
0.1720504 0.1990461 0.598 168 187 205 
0.1749692 0.1980475 0.595 181 206 227 
0.1781503 0.1973818 0.5930001 171 198 222 
0.1816127 0.1970489 0.592 165 195 218 
0.1847493 0.1963833 0.59 170 200 223 
0.1881799 0.1960504 0.589 184 215 240 
0.1915978 0.1957175 0.588 166 195 221 
0.1953352 0.1957175 0.588 184 214 246 
0.1990727 0.1957175 0.588 164 195 222 
0.2024652 0.1953847 0.587 154 181 201 
0.2061963 0.1953847 0.587 171 200 226 
0.2099273 0.1953847 0.587 195 234 252 
0.2136584 0.1953847 0.587 207 251 255 
0.2173894 0.1953847 0.587 191 229 252 
0.2211205 0.1953847 0.587 173 201 234 
0.2248516 0.1953847 0.587 167 194 216 
0.2285827 0.1953847 0.587 186 214 247 
0.2323137 0.1953847 0.587 200 245 254 
0.2364469 0.1957175 0.588 198 244 250 
0.2405928 0.1960504 0.589 194 236 253 
0.2447514 0.1963833 0.59 206 247 255 
0.2489228 0.1967161 0.591 212 255 255 
0.2531068 0.1970489 0.592 199 242 254 
0.2573036 0.1973818 0.5930001 169 198 226 
0.2610728 0.1973818 0.5930001 172 202 225 
0.2657352 0.1980475 0.595 201 245 252 
0.2695171 0.1980475 0.595 217 255 255 
0.2737584 0.1983804 0.596 212 255 253 
0.2780123 0.1987132 0.597 194 230 254 
0.2818069 0.1987132 0.597 175 200 236 
0.28608 0.1990461 0.598 195 234 254 
0.2903657 0.1993789 0.599 216 255 255 
0.2946641 0.1997118 0.6 222 255 254 
0.2994728 0.2003775 0.6020001 200 234 252 
0.3043068 0.2010432 0.604 133 155 177 
-0.2755404 0.2310994 0.691 0 2 1 
-0.2699711 0.2300961 0.688 5 27 28 
-0.2636679 0.2284239 0.683 9 21 25 
-0.2570485 0.2264172 0.677 11 28 33 
-0.2497587 0.2237417 0.669 4 21 26 
-0.2433046 0.2217351 0.663 11 23 29 
-0.237648 0.2203973 0.659 11 28 33 
-0.2323964 0.219394 0.656 11 30 34 
-0.227531 0.2187251 0.654 28 49 57 
-0.222691 0.2180562 0.652 34 58 70 
-0.2182115 0.2177217 0.651 42 66 80 
-0.2137448 0.2173873 0.65 44 68 82 
-0.2099358 0.2177217 0.651 49 73 87 
-0.2064302 0.2183906 0.6530001 50 74 88 
-0.2035187 0.2197284 0.657 53 77 91 
-0.2008598 0.2214006 0.6620001 51 75 89 
-0.1978402 0.2227384 0.666 49 73 87 
-0.1947698 0.2240761 0.67 48 72 86 
-0.1910799 0.224745 0.6720001 55 81 97 
-0.1868086 0.224745 0.6720001 59 85 101 
-0.1830805 0.2254139 0.674 56 82 98 
-0.1801228 0.2270861 0.679 58 81 98 
-0.1768426 0.2284239 0.683 60 86 102 
-0.1732591 0.2294272 0.686 54 82 97 
-0.169145 0.2297617 0.687 59 87 102 
-0.1650181 0.2300961 0.688 59 90 106 
-0.1611121 0.230765 0.6900001 57 88 104 
-0.1576349 0.2321027 0.694 58 91 106 
-0.15499 0.2347783 0.702 58 91 106 
-0.1518145 0.2367849 0.708 59 90 106 
-0.1483547 0.2384572 0.7130001 59 90 106 
-0.1448313 0.2401294 0.7180001 56 89 104 
-0.1410491 0.2414671 0.7220001 56 87 103 
-0.1370269 0.2424704 0.725 54 85 101 
-0.1326013 0.2428049 0.726 54 85 101 
-0.1283393 0.2434738 0.728 54 85 99 
-0.1243918 0.2448115 0.7320001 53 84 98 
-0.1207205 0.2468182 0.738 52 83 97 
-0.1168158 0.2484904 0.743 49 82 95 
-0.1126966 0.2498282 0.747 50 81 95 
-0.1085266 0.251166 0.751 48 81 96 
-0.1043058 0.2525037 0.7550001 45 76 90 
-0.100034 0.2538415 0.7590001 48 76 91 
-0.09546059 0.2545104 0.761 54 82 97 
-0.09098081 0.2555137 0.7640001 52 83 97 
-0.08668834 0.2571859 0.7690001 52 85 98 
-0.08233231 0.2588581 0.774 55 88 101 
-0.07751266 0.2591926 0.775 56 89 102 
-0.07277395 0.2598614 0.777 56 91 106 
-0.01061284 0.1494956 0.447 51 84 99 
-0.007754243 0.1491611 0.446 42 69 82 
-0.004908365 0.1488267 0.445 20 31 29 
-0.0006476761 0.1448134 0.433 23 24 18 
0.002080241 0.1431412 0.428 24 25 19 
0.004755813 0.1418034 0.424 32 33 27 
0.007398108 0.1408001 0.421 46 46 42 
0.01000227 0.1397967 0.418 60 57 54 
0.01262886 0.1394623 0.417 66 66 62 
0.01524274 0.1391279 0.416 72 71 71 
0.0178869 0.1391279 0.416 81 80 80 
0.02053107 0.1391279 0.416 91 90 90 
0.02317523 0.1391279 0.416 103 99 102 
0.02581939 0.1391279 0.416 113 109 112 
0.02853198 0.1394623 0.417 122 121 125 
0.03125728 0.1397967 0.418 131 130 134 
0.03407643 0.1404656 0.42 135 135 139 
0.0368335 0.1408001 0.421 140 140 144 
0.03969714 0.141469 0.423 149 149 153 
0.042486 0.1418034 0.424 150 150 154 
0.04550069 0.1428067 0.427 154 154 158 
0.04832769 0.1431412 0.428 159 159 163 
0.05092886 0.1428067 0.427 166 165 169 
0.1159542 0.30869 0.923 158 156 163 
0.1219529 0.3090244 0.924 32 43 54 
0.1584787 0.2123707 0.6350001 82 86 98 
0.1609792 0.210364 0.629 88 99 110 
0.1639281 0.2090262 0.625 107 119 133 
0.1670948 0.2080229 0.622 87 100 109 
0.1688484 0.2053474 0.614 86 93 99 
0.1696562 0.2016685 0.603 67 69 79 
0.1717627 0.1996619 0.597 116 128 146 
0.1749692 0.198993 0.595 170 195 216 
0.1781503 0.1983241 0.5930001 172 199 221 
0.1809991 0.1973208 0.59 173 202 228 
0.184123 0.1966519 0.588 173 202 228 
0.1875409 0.1963174 0.587 179 208 236 
0.191272 0.1963174 0.587 176 205 233 
0.195003 0.1963174 0.587 182 212 246 
0.1983956 0.195983 0.586 164 195 220 
0.2021203 0.195983 0.586 155 186 202 
0.205845 0.195983 0.586 172 201 227 
0.2095697 0.195983 0.586 196 235 253 
0.2132944 0.195983 0.586 208 252 255 
0.2170191 0.195983 0.586 193 232 252 
0.2211205 0.1963174 0.587 172 202 234 
0.2244685 0.195983 0.586 166 196 219 
0.2281933 0.195983 0.586 180 208 241 
0.231918 0.195983 0.586 202 242 255 
0.2360448 0.1963174 0.587 202 251 254 
0.2405928 0.1969863 0.589 195 237 252 
0.2447514 0.1973208 0.59 203 243 254 
0.2489228 0.1976552 0.591 211 255 255 
0.2531068 0.1979897 0.592 202 245 255 
0.2568696 0.1979897 0.592 178 204 233 
0.2610728 0.1983241 0.5930001 173 200 222 
0.2652886 0.1986586 0.594 201 241 254 
0.2690642 0.1986586 0.594 217 255 255 
0.273299 0.198993 0.595 211 255 252 
0.2775466 0.1993274 0.596 195 232 253 
0.2813349 0.1993274 0.596 175 200 234 
0.2856016 0.1996619 0.597 192 230 255 
0.289881 0.1999963 0.598 215 255 254 
0.2941731 0.2003308 0.599 222 255 254 
0.2989753 0.2009996 0.601 201 239 253 
0.3043068 0.202003 0.604 137 159 181 
-0.2781384 0.2325335 0.692 0 1 0 
-0.2725532 0.2315254 0.689 2 13 13 
-0.2666169 0.2301813 0.6850001 9 28 30 
-0.2603486 0.2285011 0.68 18 35 40 
-0.2530144 0.2258129 0.6720001 6 23 28 
-0.2461519 0.2234607 0.665 7 19 23 
-0.2397423 0.2214445 0.659 10 24 28 
-0.2344813 0.2204364 0.656 8 25 30 
-0.2296095 0.2197643 0.654 20 38 45 
-0.2247631 0.2190922 0.652 30 52 64 
-0.2202805 0.2187562 0.651 35 59 73 
-0.2158106 0.2184202 0.65 40 67 80 
-0.2116791 0.2184202 0.65 46 73 86 
-0.2078669 0.2187562 0.651 47 74 87 
-0.2049808 0.2201003 0.655 49 76 89 
-0.2017373 0.2211085 0.6580001 53 77 91 
-0.1987559 0.2224526 0.6620001 53 77 91 
-0.1960175 0.2241327 0.6670001 48 72 86 
-0.1926405 0.2251408 0.67 54 77 94 
-0.1889442 0.2258129 0.6720001 57 83 99 
-0.1846729 0.2258129 0.6720001 59 85 101 
-0.1814754 0.227157 0.6760001 55 81 97 
-0.178227 0.2285011 0.68 59 85 101 
-0.1749278 0.2298452 0.684 60 86 102 
-0.1710789 0.2305173 0.686 60 88 103 
-0.1669616 0.2308533 0.687 60 88 105 
-0.1628316 0.2311894 0.688 61 89 106 
-0.1591495 0.2321975 0.691 58 89 105 
-0.1558772 0.2338776 0.696 56 89 104 
-0.1531942 0.2365659 0.7040001 58 91 106 
-0.1499869 0.2385821 0.71 57 90 105 
-0.1464985 0.2402622 0.715 55 88 103 
-0.142748 0.2416063 0.719 55 88 103 
-0.1389467 0.2429505 0.723 52 85 100 
-0.1347228 0.2436225 0.725 52 85 100 
-0.1304735 0.2442946 0.7270001 57 88 102 
-0.1261988 0.2449666 0.729 53 84 98 
-0.1225657 0.2469828 0.735 48 81 94 
-0.1186959 0.248663 0.74 50 83 96 
-0.1146085 0.2500071 0.744 53 81 96 
-0.1104703 0.2513512 0.748 48 81 94 
-0.1064225 0.2530314 0.753 45 78 91 
-0.1021762 0.2543755 0.757 51 79 94 
-0.09749325 0.2547115 0.758 52 80 95 
-0.09304207 0.2557196 0.761 55 83 98 
-0.08866865 0.2570638 0.765 49 82 95 
-0.08435394 0.2587439 0.77 54 85 99 
-0.07997567 0.2604241 0.775 53 86 99 
-0.07514648 0.2607601 0.776 53 88 103 
-0.07030457 0.2610961 0.777 58 91 106 
-0.009192233 0.1502059 0.447 47 79 97 
-0.006351028 0.1502059 0.447 31 43 49 
-0.003494118 0.1495338 0.445 20 26 24 
0.0007250689 0.1448294 0.431 23 24 18 
0.003424383 0.1431492 0.426 29 30 24 
0.006074531 0.1418051 0.422 39 39 35 
0.00871533 0.141133 0.42 53 50 47 
0.01133071 0.140461 0.418 65 62 59 
0.01395412 0.140125 0.417 67 68 64 
0.01660464 0.140125 0.417 75 75 75 
0.01925516 0.140125 0.417 87 86 86 
0.02190568 0.140125 0.417 99 95 96 
0.0245562 0.140125 0.417 108 104 107 
0.02720672 0.140125 0.417 117 116 118 
0.02992884 0.140461 0.418 126 125 129 
0.03274163 0.141133 0.42 133 133 137 
0.03549553 0.1414691 0.421 140 140 144 
0.03835281 0.1421411 0.423 145 145 149 
0.0411385 0.1424772 0.424 150 150 154 
0.04404027 0.1431492 0.426 153 153 157 
0.04696747 0.1438213 0.428 158 158 162 
0.04968791 0.1438213 0.428 162 162 166 
0.1128984 0.3098207 0.9220001 165 164 168 
0.1188875 0.3101567 0.923 30 39 51 
0.1248894 0.3104927 0.924 29 40 49 
0.1584787 0.2133797 0.6350001 78 80 90 
0.1612352 0.2116996 0.6300001 69 71 81 
0.1641904 0.2103554 0.626 83 89 100 
0.1673635 0.2093474 0.623 75 80 87 
0.1688484 0.2063231 0.614 62 60 67 
0.1696562 0.2026267 0.603 63 62 66 
0.1717627 0.2006105 0.597 68 72 86 
0.1749692 0.1999385 0.595 144 164 186 
0.1781503 0.1992664 0.5930001 175 202 224 
0.1806923 0.1979223 0.589 179 207 238 
0.1838098 0.1972502 0.587 176 206 236 
0.1872214 0.1969142 0.586 171 199 230 
0.1906203 0.1965782 0.585 181 209 242 
0.1943386 0.1965782 0.585 182 212 246 
0.198057 0.1965782 0.585 167 196 222 
0.2017754 0.1965782 0.585 160 188 205 
0.2054937 0.1965782 0.585 170 199 225 
0.2092121 0.1965782 0.585 198 240 255 
0.2129304 0.1965782 0.585 209 254 254 
0.2166488 0.1965782 0.585 195 234 254 
0.2203671 0.1965782 0.585 175 205 239 
0.2240855 0.1965782 0.585 166 195 221 
0.2278038 0.1965782 0.585 179 209 241 
0.231918 0.1969142 0.586 198 235 254 
0.2356427 0.1969142 0.586 203 252 253 
0.2401843 0.1975863 0.588 197 240 252 
0.2443366 0.1979223 0.589 201 241 252 
0.2485016 0.1982583 0.59 211 255 255 
0.2526793 0.1985944 0.591 204 248 255 
0.2568696 0.1989304 0.592 180 206 235 
0.2606325 0.1989304 0.592 172 197 220 
0.264842 0.1992664 0.5930001 197 236 252 
0.2686112 0.1992664 0.5930001 217 255 255 
0.2728397 0.1996025 0.594 209 254 252 
0.277081 0.1999385 0.595 196 233 252 
0.2813349 0.2002745 0.596 178 203 237 
0.2851232 0.2002745 0.596 188 223 252 
0.2893962 0.2006105 0.597 213 255 254 
0.2931908 0.2006105 0.597 223 255 254 
0.2984778 0.2016186 0.6 200 240 251 
0.303803 0.2026267 0.603 142 164 186 
-0.2781384 0.2336331 0.692 0 1 0 
-0.2725532 0.2326202 0.689 6 17 17 
-0.2666169 0.2312698 0.6850001 8 25 28 
-0.2603486 0.2295817 0.68 18 35 40 
-0.2530144 0.2268807 0.6720001 6 23 28 
-0.2457818 0.2241797 0.664 7 19 23 
-0.2393785 0.222154 0.6580001 9 23 27 
-0.2341238 0.2211412 0.655 7 24 27 
-0.2292584 0.2204659 0.6530001 17 36 40 
-0.2247631 0.2201283 0.652 29 49 60 
-0.2199421 0.2194531 0.65 35 57 71 
-0.2154786 0.2191155 0.649 39 66 79 
-0.2113535 0.2191155 0.649 46 73 86 
-0.2075476 0.2194531 0.65 47 74 87 
-0.2046679 0.2208035 0.654 51 78 91 
-0.2017373 0.222154 0.6580001 53 77 91 
-0.1987559 0.2235045 0.6620001 53 77 91 
-0.1957236 0.224855 0.666 48 72 86 
-0.192353 0.2258678 0.669 55 79 93 
-0.188663 0.2265431 0.671 57 83 99 
-0.1846729 0.2268807 0.6720001 59 85 101 
-0.1812069 0.2278936 0.675 56 82 98 
-0.1779649 0.229244 0.679 59 85 101 
-0.174672 0.2305945 0.683 60 86 102 
-0.1708295 0.2312698 0.6850001 60 88 103 
-0.1667186 0.2316074 0.686 60 88 105 
-0.1628316 0.2322826 0.688 61 89 106 
-0.1591495 0.2332955 0.691 58 89 105 
-0.1556533 0.234646 0.6950001 57 90 105 
-0.1529766 0.2373469 0.703 57 90 105 
-0.1497757 0.2393727 0.7090001 57 90 105 
-0.1462936 0.2410607 0.714 55 88 103 
-0.1425495 0.2424112 0.7180001 52 85 100 
-0.1387545 0.2437617 0.7220001 52 85 100 
-0.134537 0.2444369 0.724 53 86 101 
-0.130294 0.2451122 0.726 57 88 102 
-0.1261988 0.246125 0.729 53 84 98 
-0.1223989 0.2478132 0.734 48 81 94 
-0.1186959 0.2498389 0.74 50 83 96 
-0.1146085 0.2511894 0.744 53 81 96 
-0.1104703 0.2525398 0.748 47 80 93 
-0.1064225 0.2542279 0.753 45 78 91 
-0.1020413 0.2552408 0.756 50 78 93 
-0.09736463 0.2555784 0.757 50 81 95 
-0.09279755 0.2562537 0.7590001 53 84 98 
-0.08843683 0.2576041 0.763 47 82 95 
-0.08413483 0.2592922 0.768 56 84 99 
-0.07987247 0.261318 0.774 53 86 99 
-0.07514648 0.2619932 0.776 56 89 104 
-0.07021409 0.2619932 0.776 58 91 106 
-0.009212798 0.1512538 0.448 48 80 98 
-0.006379444 0.1515914 0.449 28 40 46 
-0.00350197 0.1505786 0.446 19 25 23 
0.002085101 0.144839 0.429 25 26 20 
0.004755813 0.1431509 0.424 32 33 27 
0.007398108 0.1421381 0.421 46 46 42 
0.01005012 0.1418004 0.42 61 58 55 
0.01265914 0.1411252 0.418 65 65 61 
0.01527938 0.1407876 0.417 71 71 71 
0.0179299 0.1407876 0.417 81 80 80 
0.02058042 0.1407876 0.417 92 88 89 
0.02323094 0.1407876 0.417 103 99 102 
0.02588146 0.1407876 0.417 113 109 112 
0.0286004 0.1411252 0.418 122 121 123 
0.03133206 0.1414628 0.419 130 129 133 
0.03415756 0.1421381 0.421 137 137 141 
0.03692099 0.1424757 0.422 142 142 146 
0.03979099 0.1431509 0.424 149 149 153 
0.0425862 0.1434885 0.425 151 151 155 
0.04560725 0.1445014 0.428 157 157 161 
0.04844061 0.144839 0.429 162 162 166 
0.1096103 0.3102729 0.919 166 166 170 
0.1159542 0.3116233 0.923 160 159 166 
0.1218209 0.3116233 0.923 26 37 48 
0.1568747 0.217765 0.645 135 131 132 
0.1584787 0.2143888 0.6350001 76 75 82 
0.1614911 0.2130383 0.631 63 61 68 
0.1644527 0.2116878 0.627 58 57 66 
0.1673635 0.2103373 0.623 55 50 58 
0.1691234 0.2076364 0.615 60 51 56 
0.1696562 0.2035849 0.603 61 55 57 
0.1720504 0.2018968 0.598 69 65 70 
0.1749692 0.200884 0.595 111 118 140 
0.1781503 0.2002087 0.5930001 177 202 223 
0.1806923 0.1988582 0.589 183 213 245 
0.1834967 0.1978454 0.586 180 212 246 
0.1865824 0.1971701 0.5840001 177 205 236 
0.1902945 0.1971701 0.5840001 182 212 244 
0.1936742 0.1968325 0.583 180 209 246 
0.1973799 0.1968325 0.583 168 199 224 
0.2010855 0.1968325 0.583 165 192 212 
0.2047912 0.1968325 0.583 169 195 222 
0.2088545 0.1971701 0.5840001 198 240 255 
0.2125665 0.1971701 0.5840001 211 255 255 
0.2162784 0.1971701 0.5840001 195 234 254 
0.2199904 0.1971701 0.5840001 176 206 240 
0.2237024 0.1971701 0.5840001 166 195 221 
0.2274144 0.1971701 0.5840001 183 213 245 
0.2315222 0.1975078 0.585 193 229 253 
0.2356427 0.1978454 0.586 208 254 255 
0.2397759 0.198183 0.587 196 241 250 
0.2439218 0.1985206 0.588 201 241 252 
0.2485016 0.1991959 0.59 211 255 255 
0.2526793 0.1995335 0.591 206 250 255 
0.2564358 0.1995335 0.591 178 204 233 
0.2606325 0.1998711 0.592 170 195 216 
0.2643954 0.1998711 0.592 193 232 248 
0.2681582 0.1998711 0.592 216 255 255 
0.2723804 0.2002087 0.5930001 208 254 249 
0.2766153 0.2005463 0.594 199 238 254 
0.2808629 0.200884 0.595 177 205 238 
0.2846448 0.200884 0.595 183 215 247 
0.2889114 0.2012216 0.596 213 255 254 
0.2926997 0.2012216 0.596 223 255 254 
0.2979804 0.2022344 0.599 204 245 253 
0.303803 0.2035849 0.603 149 169 191 
-0.2781384 0.2347327 0.692 0 1 0 
-0.2725532 0.2337151 0.689 9 22 21 
-0.2666169 0.2323583 0.6850001 7 24 27 
-0.2599657 0.230323 0.679 19 35 43 
-0.2526378 0.2276093 0.671 5 22 27 
-0.2457818 0.2252349 0.664 7 19 23 
-0.2393785 0.2231996 0.6580001 8 22 26 
-0.2337664 0.2218428 0.654 6 23 28 
-0.2289073 0.2211643 0.652 12 31 35 
-0.2244183 0.2208251 0.651 30 47 59 
-0.2196037 0.2201467 0.649 31 53 67 
-0.2151466 0.2198075 0.648 37 66 78 
-0.2110278 0.2198075 0.648 46 72 88 
-0.2072283 0.2201467 0.649 49 75 91 
-0.2043549 0.2215036 0.6530001 51 78 91 
-0.2014307 0.2228604 0.657 53 77 91 
-0.1981554 0.223878 0.66 53 77 91 
-0.1951359 0.2252349 0.664 49 73 87 
-0.1920655 0.2265917 0.668 58 81 98 
-0.1883819 0.2272701 0.67 56 84 99 
-0.1843981 0.2276093 0.671 59 85 101 
-0.18067 0.2282877 0.673 56 82 98 
-0.1777028 0.2299838 0.678 59 85 101 
-0.1744163 0.2313406 0.682 60 86 102 
-0.1708295 0.2323583 0.6850001 61 89 104 
-0.1667186 0.2326975 0.686 60 88 105 
-0.1628316 0.2333759 0.688 61 89 106 
-0.1591495 0.2343935 0.691 61 89 106 
-0.1556533 0.2357503 0.6950001 56 89 104 
-0.152759 0.2381248 0.702 57 90 105 
-0.1497757 0.2404993 0.7090001 56 89 104 
-0.1462936 0.2421953 0.714 55 88 103 
-0.1423509 0.2432129 0.717 52 85 100 
-0.1385623 0.2445698 0.721 50 85 100 
-0.134537 0.2455874 0.724 56 87 103 
-0.130294 0.2462658 0.726 56 87 101 
-0.1261988 0.2472835 0.729 53 84 98 
-0.1222322 0.2486403 0.733 48 81 94 
-0.1185355 0.2506755 0.739 49 82 95 
-0.1146085 0.2523716 0.744 52 80 95 
-0.1104703 0.2537284 0.748 47 80 93 
-0.1062812 0.2550853 0.752 45 78 91 
-0.1019063 0.2561029 0.7550001 51 79 94 
-0.09723601 0.2564421 0.756 50 81 95 
-0.09267528 0.2571205 0.758 50 83 96 
-0.08820502 0.2581381 0.761 47 82 95 
-0.08402529 0.2601734 0.767 58 86 101 
-0.07976928 0.2622087 0.7730001 56 87 101 
-0.07514648 0.2632263 0.776 56 89 104 
-0.07021409 0.2632263 0.776 58 91 106 
-0.009253926 0.1526441 0.45 48 80 98 
-0.006393652 0.1526441 0.45 27 37 42 
-0.003517674 0.1519657 0.448 19 25 23 
-0.0006686171 0.1516265 0.447 23 24 18 
0.003424383 0.1445031 0.426 25 29 22 
0.006088925 0.1434855 0.423 39 39 33 
0.008736081 0.1428071 0.421 52 52 48 
0.01138492 0.1424678 0.42 64 61 58 
0.01402105 0.1421286 0.419 67 68 64 
0.01664446 0.1417894 0.418 77 76 76 
0.01930133 0.1417894 0.418 87 83 84 
0.02195821 0.1417894 0.418 99 95 96 
0.02461509 0.1417894 0.418 107 103 106 
0.02727196 0.1417894 0.418 116 115 117 
0.03000044 0.1421286 0.419 127 126 128 
0.03274163 0.1424678 0.42 135 135 139 
0.03557985 0.1431462 0.422 140 140 144 
0.03844348 0.1438247 0.424 146 146 150 
0.04123552 0.1441639 0.425 150 150 154 
0.04414365 0.1448423 0.427 153 156 159 
0.04707721 0.1455207 0.429 158 158 162 
0.04968791 0.1451815 0.428 165 165 169 
0.1127759 0.3124116 0.9210001 165 165 169 
0.1187587 0.3127508 0.9220001 27 36 48 
0.1247543 0.31309 0.923 25 36 45 
0.1566315 0.2184507 0.6440001 121 117 120 
0.1587282 0.215737 0.636 72 72 76 
0.161747 0.2143802 0.632 60 56 59 
0.1649773 0.2133625 0.629 50 46 51 
0.1676321 0.2116665 0.624 50 44 50 
0.1691234 0.2086136 0.615 59 49 49 
0.1699375 0.2048823 0.604 61 53 52 
0.1723381 0.2031863 0.599 68 63 61 
0.1752632 0.2021686 0.596 84 81 95 
0.1781503 0.201151 0.5930001 145 160 184 
0.1806923 0.1997942 0.589 183 211 242 
0.1828704 0.1980981 0.5840001 181 213 247 
0.1859435 0.1974197 0.582 182 212 244 
0.1896428 0.1974197 0.582 183 215 249 
0.193342 0.1974197 0.582 181 212 249 
0.1970413 0.1974197 0.582 171 201 231 
0.2007406 0.1974197 0.582 166 193 215 
0.2044399 0.1974197 0.582 175 201 230 
0.2084968 0.1977589 0.583 197 239 254 
0.2122025 0.1977589 0.583 211 255 255 
0.2159081 0.1977589 0.583 194 233 251 
0.2196137 0.1977589 0.583 177 207 241 
0.2233194 0.1977589 0.583 167 196 222 
0.2274144 0.1980981 0.5840001 189 219 251 
0.2311265 0.1980981 0.5840001 192 228 252 
0.2352406 0.1984373 0.585 211 255 255 
0.2393674 0.1987765 0.586 198 244 248 
0.2439218 0.199455 0.588 201 241 254 
0.2480804 0.1997942 0.589 212 255 255 
0.2522517 0.2001334 0.59 209 254 254 
0.2564358 0.2004726 0.591 176 202 231 
0.2601922 0.2004726 0.591 167 192 215 
0.2639487 0.2004726 0.591 193 232 250 
0.2677052 0.2004726 0.591 216 255 255 
0.271921 0.2008118 0.592 209 255 250 
0.2761496 0.201151 0.5930001 200 243 253 
0.2803908 0.2014902 0.594 179 209 243 
0.2841664 0.2014902 0.594 180 212 246 
0.2884267 0.2018294 0.595 215 255 254 
0.2926997 0.2021686 0.596 223 255 254 
0.2974829 0.2028471 0.598 209 248 255 
0.303803 0.2045431 0.603 155 177 201 
-0.2781384 0.2358323 0.692 0 1 0 
-0.2721576 0.2344691 0.688 9 24 23 
-0.2666169 0.2334468 0.6850001 6 23 26 
-0.2599657 0.231402 0.679 18 34 42 
-0.2526378 0.2286756 0.671 5 22 27 
-0.2454116 0.2259492 0.663 5 19 23 
-0.2390147 0.2239044 0.657 8 22 26 
-0.233409 0.2225412 0.6530001 5 22 27 
-0.2285562 0.2218596 0.651 10 29 33 
-0.2240736 0.2215188 0.65 29 49 60 
-0.2192654 0.2208372 0.648 28 50 64 
-0.2151466 0.2208372 0.648 36 65 77 
-0.2110278 0.2208372 0.648 44 72 87 
-0.2072283 0.221178 0.649 49 75 91 
-0.2043549 0.2225412 0.6530001 52 79 92 
-0.2014307 0.2239044 0.657 53 77 91 
-0.1978552 0.224586 0.659 53 77 91 
-0.194842 0.2259492 0.663 49 73 87 
-0.1914904 0.2269716 0.666 58 81 98 
-0.1881007 0.227994 0.669 58 86 101 
-0.1841232 0.2283348 0.67 59 85 101 
-0.1804015 0.2290164 0.6720001 56 82 98 
-0.1774407 0.2307204 0.677 60 86 102 
-0.1741606 0.2320836 0.6810001 59 87 102 
-0.1705801 0.233106 0.684 61 89 104 
-0.1667186 0.2337876 0.686 60 88 105 
-0.1628316 0.2344691 0.688 60 88 105 
-0.1589192 0.2351508 0.6900001 61 89 106 
-0.1556533 0.2368547 0.6950001 56 89 104 
-0.152759 0.2392403 0.702 56 89 104 
-0.1495644 0.2412851 0.708 55 88 103 
-0.1462936 0.2433299 0.714 53 86 101 
-0.1423509 0.2443523 0.717 52 85 100 
-0.1383701 0.2453747 0.72 51 86 101 
-0.1343511 0.2463971 0.723 57 88 104 
-0.130294 0.2474195 0.726 56 87 101 
-0.1260257 0.2481011 0.728 53 84 98 
-0.1222322 0.2498051 0.733 49 80 94 
-0.1183751 0.2515091 0.738 49 82 95 
-0.1144545 0.253213 0.743 49 80 94 
-0.1103226 0.2545762 0.747 47 80 93 
-0.1061399 0.2559395 0.751 45 78 91 
-0.1017713 0.2569618 0.754 49 80 94 
-0.0971074 0.2573026 0.7550001 51 82 96 
-0.09255301 0.2579842 0.757 49 82 95 
-0.08808912 0.2590066 0.7600001 48 83 96 
-0.08391574 0.2610514 0.766 58 86 101 
-0.07956289 0.2627554 0.771 56 87 101 
-0.07504964 0.2641186 0.775 56 89 102 
-0.07012361 0.2641186 0.775 58 91 104 
-0.01068406 0.1533592 0.45 48 82 100 
-0.007823789 0.1533592 0.45 41 63 75 
-0.004963515 0.1533592 0.45 19 27 26 
-0.002093893 0.1526776 0.448 20 23 22 
0.000748621 0.1516552 0.445 24 25 19 
0.00344046 0.1458616 0.428 27 28 22 
0.006088925 0.1441576 0.423 39 39 33 
0.008756832 0.1438168 0.422 53 50 47 
0.01138492 0.1431352 0.42 64 61 58 
0.01402105 0.1427944 0.419 68 68 64 
0.01664446 0.1424536 0.418 78 77 77 
0.01930133 0.1424536 0.418 89 85 86 
0.02195821 0.1424536 0.418 98 94 95 
0.02461509 0.1424536 0.418 106 102 105 
0.02733721 0.1427944 0.419 116 115 117 
0.03007204 0.1431352 0.42 127 126 128 
0.03281959 0.143476 0.421 135 135 137 
0.03557985 0.1438168 0.422 139 139 141 
0.03844348 0.1444984 0.424 146 146 150 
0.04123552 0.1448392 0.425 150 150 154 
0.04414365 0.1455208 0.427 155 158 161 
0.04707721 0.1462024 0.429 159 159 163 
0.049804 0.1462024 0.429 165 165 169 
0.1127759 0.3138751 0.9210001 165 165 167 
0.1187587 0.3142159 0.9220001 31 40 52 
0.1247543 0.3145567 0.923 23 34 43 
0.1566315 0.219474 0.6440001 111 107 112 
0.1589778 0.2170884 0.637 69 69 73 
0.1622589 0.216066 0.634 56 52 53 
0.1652396 0.2147029 0.6300001 42 38 41 
0.1681694 0.2133397 0.626 50 41 44 
0.1693984 0.2099317 0.6160001 60 49 44 
0.1702189 0.2061829 0.605 61 54 48 
0.1726258 0.2044789 0.6 70 63 57 
0.1755573 0.2034565 0.597 79 73 77 
0.1784507 0.2024341 0.594 91 96 116 
0.1809991 0.2010709 0.59 172 199 223 
0.1825573 0.1986853 0.583 180 212 246 
0.185624 0.1980038 0.581 183 213 247 
0.1889911 0.1976629 0.58 186 215 252 
0.1926776 0.1976629 0.58 183 214 251 
0.1963642 0.1976629 0.58 174 206 238 
0.2003957 0.1980038 0.581 164 194 215 
0.2040886 0.1980038 0.581 178 204 231 
0.2081392 0.1983445 0.582 194 236 253 
0.2118385 0.1983445 0.582 209 253 255 
0.2155378 0.1983445 0.582 192 234 251 
0.219237 0.1983445 0.582 178 208 240 
0.2229363 0.1983445 0.582 169 200 225 
0.227025 0.1986853 0.583 188 223 252 
0.2307307 0.1986853 0.583 192 228 252 
0.2348384 0.1990262 0.5840001 211 255 255 
0.2389589 0.1993669 0.585 204 248 251 
0.2430921 0.1997077 0.586 201 241 254 
0.2476592 0.2003893 0.588 214 255 255 
0.2522517 0.2010709 0.59 209 254 254 
0.2560019 0.2010709 0.59 173 201 232 
0.259752 0.2010709 0.59 165 192 214 
0.2639487 0.2014117 0.591 194 231 252 
0.2677052 0.2014117 0.591 214 255 255 
0.2714617 0.2014117 0.591 211 255 252 
0.2756839 0.2017525 0.592 204 248 253 
0.2799188 0.2020933 0.5930001 184 214 248 
0.2841664 0.2024341 0.594 183 212 249 
0.2879419 0.2024341 0.594 215 255 254 
0.2922086 0.2027749 0.595 223 255 254 
0.2974829 0.2037973 0.598 209 250 254 
0.3032992 0.2051605 0.6020001 158 180 204 
-0.2777365 0.2365896 0.691 0 1 0 
-0.2721576 0.2355624 0.688 10 24 26 
-0.2662277 0.2341928 0.684 5 22 25 
-0.2599657 0.2324809 0.679 18 34 42 
-0.2526378 0.2297418 0.671 5 22 27 
-0.2450415 0.2266603 0.6620001 7 19 21 
-0.2386509 0.224606 0.656 7 21 23 
-0.233409 0.2235789 0.6530001 6 23 26 
-0.2285562 0.2228941 0.651 7 24 29 
-0.2237289 0.2222093 0.649 29 49 60 
-0.2192654 0.2218669 0.648 25 45 58 
-0.2148145 0.2215245 0.647 35 62 75 
-0.2107021 0.2215245 0.647 44 73 85 
-0.206909 0.2218669 0.648 48 76 91 
-0.204042 0.2232365 0.652 51 78 91 
-0.2011241 0.224606 0.656 54 78 92 
-0.197555 0.2252908 0.6580001 52 79 92 
-0.1945481 0.2266603 0.6620001 49 73 87 
-0.1912029 0.2276875 0.665 57 80 97 
-0.1878196 0.2287147 0.668 60 86 102 
-0.1841232 0.2293994 0.67 59 85 101 
-0.1804015 0.2300842 0.6720001 57 83 99 
-0.1771786 0.2314538 0.6760001 59 87 102 
-0.1739048 0.2328233 0.68 59 87 102 
-0.1703307 0.2338505 0.683 58 89 103 
-0.1664756 0.2345352 0.6850001 59 90 106 
-0.1628316 0.2355624 0.688 59 90 106 
-0.1589192 0.2362472 0.6900001 59 90 106 
-0.1554293 0.2376167 0.694 56 89 104 
-0.152759 0.2403558 0.702 56 89 104 
-0.1495644 0.2424101 0.708 54 85 101 
-0.1460887 0.2441221 0.7130001 54 85 101 
-0.1421524 0.2451492 0.716 53 84 100 
-0.1381779 0.2461764 0.719 51 86 101 
-0.1343511 0.247546 0.723 57 88 104 
-0.1301146 0.2482307 0.725 56 87 101 
-0.1260257 0.2492579 0.728 53 84 98 
-0.1220654 0.2506275 0.7320001 50 81 95 
-0.1182147 0.2523394 0.737 49 82 95 
-0.1143004 0.2540513 0.742 49 80 94 
-0.1101749 0.2554209 0.7460001 45 78 91 
-0.1058572 0.256448 0.749 47 80 93 
-0.1015014 0.2574752 0.752 49 80 94 
-0.09697877 0.25816 0.754 50 83 96 
-0.09243076 0.2588447 0.756 46 81 94 
-0.08797321 0.2598719 0.7590001 48 83 96 
-0.08369664 0.2615838 0.7640001 58 86 101 
-0.0794597 0.2636382 0.77 59 87 102 
-0.0749528 0.2650077 0.774 56 89 102 
-0.07012361 0.2653501 0.775 58 91 104 
-0.009253926 0.1540743 0.45 45 77 95 
-0.006393652 0.1540743 0.45 27 34 38 
-0.003533378 0.1540743 0.45 19 25 23 
-0.0006686171 0.1530471 0.447 23 24 20 
0.002114264 0.1489384 0.435 25 26 20 
0.00476703 0.1455146 0.425 33 33 27 
0.007433253 0.1448298 0.423 45 45 39 
0.01007405 0.144145 0.421 58 55 52 
0.01271971 0.1438026 0.42 65 62 59 
0.01535266 0.1434602 0.419 73 73 69 
0.01801589 0.1434602 0.419 84 80 81 
0.02067913 0.1434602 0.419 92 88 91 
0.02334236 0.1434602 0.419 103 99 102 
0.02600559 0.1434602 0.419 113 109 112 
0.02873725 0.1438026 0.42 120 119 121 
0.03140683 0.1438026 0.42 131 130 132 
0.03423869 0.1444874 0.422 137 137 139 
0.03700848 0.1448298 0.423 143 143 147 
0.03988483 0.1455146 0.425 147 147 151 
0.04278661 0.1461993 0.427 151 154 157 
0.04571381 0.1468841 0.429 158 158 162 
0.04855352 0.1472265 0.43 164 164 168 
0.1094911 0.3143115 0.918 167 167 171 
0.1157029 0.3153386 0.9210001 154 154 158 
0.1216889 0.315681 0.9220001 21 32 41 
0.1553049 0.2215245 0.647 132 128 129 
0.1576926 0.2191278 0.64 78 80 88 
0.1607495 0.2177583 0.636 63 59 60 
0.1640147 0.2167311 0.633 37 31 33 
0.1669763 0.2153616 0.629 46 38 37 
0.1687998 0.2126225 0.6210001 54 45 40 
0.1699652 0.2091986 0.611 61 50 43 
0.1715726 0.2064595 0.603 66 57 50 
0.1742418 0.2050899 0.599 74 67 61 
0.1774546 0.2044052 0.597 82 73 76 
0.1797312 0.2026932 0.592 90 95 113 
0.1819443 0.2009813 0.587 170 199 225 
0.1834612 0.1985846 0.58 183 213 245 
0.1868251 0.1982422 0.5790001 185 215 249 
0.1905053 0.1982422 0.5790001 179 208 245 
0.1941856 0.1982422 0.5790001 189 224 255 
0.1978658 0.1982422 0.5790001 172 202 232 
0.2018941 0.1985846 0.58 164 191 213 
0.2059351 0.198927 0.581 187 217 249 
0.209628 0.198927 0.581 202 245 255 
0.213321 0.198927 0.581 204 248 255 
0.2170139 0.198927 0.581 190 226 250 
0.2207068 0.198927 0.581 165 196 221 
0.224786 0.1992694 0.582 181 213 245 
0.2288778 0.1996117 0.583 194 232 255 
0.2325835 0.1996117 0.583 203 243 254 
0.2366945 0.1999541 0.5840001 209 254 254 
0.2408181 0.2002965 0.585 197 241 248 
0.2449545 0.2006389 0.586 206 247 253 
0.2495279 0.2013237 0.588 214 255 255 
0.2536961 0.2016661 0.589 204 242 255 
0.2578769 0.2020085 0.59 162 192 211 
0.261627 0.2020085 0.59 178 207 235 
0.2653772 0.2020085 0.59 206 252 255 
0.2691273 0.2020085 0.59 217 255 255 
0.27334 0.2023508 0.591 209 255 250 
0.2775653 0.2026932 0.592 196 233 254 
0.2818034 0.2030356 0.5930001 176 205 242 
0.2855726 0.2030356 0.5930001 199 238 255 
0.2898297 0.203378 0.594 220 255 254 
0.2940996 0.2037204 0.595 219 255 253 
0.3008853 0.2057747 0.601 191 223 245 
-0.2803376 0.2380316 0.692 0 2 0 
-0.2751417 0.2373436 0.6900001 4 12 13 
-0.2691863 0.2359677 0.686 11 28 31 
-0.2628958 0.2342478 0.6810001 10 27 32 
-0.2562891 0.232184 0.675 8 24 32 
-0.2486387 0.2290882 0.666 2 16 18 
-0.2414697 0.2263364 0.6580001 8 20 22 
-0.2354843 0.2246165 0.6530001 10 22 24 
-0.2306251 0.2239285 0.651 14 31 34 
-0.2257915 0.2232406 0.649 16 29 38 
-0.2213247 0.2228966 0.648 26 46 57 
-0.2168708 0.2225526 0.647 34 56 70 
-0.2124295 0.2222086 0.646 40 69 81 
-0.2086459 0.2225526 0.647 45 74 86 
-0.2051657 0.2232406 0.649 51 77 93 
-0.2022796 0.2246165 0.6530001 53 77 91 
-0.1990393 0.2256484 0.656 52 79 92 
-0.1957608 0.2266804 0.659 50 74 88 
-0.1924442 0.2277123 0.6620001 50 73 90 
-0.1890895 0.2287442 0.665 62 85 102 
-0.1856966 0.2297761 0.668 59 85 101 
-0.1819939 0.2304641 0.67 56 82 98 
-0.1785312 0.231496 0.673 56 84 99 
-0.1752891 0.2328719 0.677 60 88 103 
-0.1719963 0.2342478 0.6810001 56 84 99 
-0.1684063 0.2352797 0.684 58 89 103 
-0.1645384 0.2359677 0.686 59 90 106 
-0.1606451 0.2366557 0.688 58 89 105 
-0.1571806 0.2380316 0.692 58 89 105 
-0.1541068 0.2400954 0.698 57 90 105 
-0.1511712 0.2425033 0.705 56 87 103 
-0.1479385 0.2445671 0.711 56 84 101 
-0.1440245 0.245599 0.714 54 85 101 
-0.1400723 0.246631 0.717 53 86 101 
-0.1360819 0.2476629 0.72 56 89 104 
-0.1320534 0.2486948 0.723 56 87 103 
-0.1279867 0.2497267 0.726 53 84 98 
-0.1240519 0.2511027 0.73 52 83 97 
-0.1200662 0.2524786 0.734 50 83 96 
-0.1161869 0.2541984 0.739 48 81 94 
-0.112244 0.2559183 0.744 48 79 93 
-0.1078041 0.2566063 0.7460001 45 78 91 
-0.1034768 0.2576382 0.749 47 80 93 
-0.09911145 0.2586701 0.752 51 82 96 
-0.09458249 0.2593581 0.754 47 82 95 
-0.0901472 0.26039 0.757 46 81 94 
-0.08578651 0.2617659 0.761 52 85 98 
-0.08137495 0.2631418 0.765 57 88 102 
-0.07711259 0.2652057 0.771 57 88 102 
-0.07249297 0.2662376 0.774 59 90 104 
-0.06757329 0.2662376 0.774 60 91 105 
-0.007841175 0.1551333 0.451 42 62 73 
-0.004963515 0.1547893 0.45 20 26 26 
-0.002103241 0.1547893 0.45 20 24 19 
0.0007519855 0.1537574 0.447 24 25 21 
0.003456537 0.1479098 0.43 29 30 26 
0.00610332 0.1458459 0.424 38 38 32 
0.008777582 0.1455019 0.423 51 48 45 
0.01141203 0.144814 0.421 63 60 57 
0.01405451 0.14447 0.42 68 68 64 
0.01668428 0.1441261 0.419 76 76 72 
0.01934751 0.1441261 0.419 88 87 87 
0.02201074 0.1441261 0.419 98 94 97 
0.02473286 0.14447 0.42 105 101 104 
0.02740245 0.14447 0.42 118 114 117 
0.03007204 0.14447 0.42 127 126 128 
0.03281959 0.144814 0.421 133 133 137 
0.03566416 0.1455019 0.423 139 139 143 
0.03853415 0.1461899 0.425 146 146 150 
0.04133254 0.1465339 0.426 149 152 155 
0.04424703 0.1472218 0.428 155 158 161 
0.04718694 0.1479098 0.43 159 159 163 
0.04992009 0.1479098 0.43 166 166 170 
0.1126535 0.3164581 0.92 165 165 167 
0.1186299 0.3168021 0.9210001 53 62 74 
0.124484 0.3168021 0.9210001 20 30 37 
0.1550648 0.2222086 0.646 128 125 122 
0.1579389 0.2204888 0.641 76 81 88 
0.1610022 0.2191129 0.637 58 54 55 
0.1642738 0.2180809 0.634 38 30 29 
0.1669763 0.216361 0.629 48 38 36 
0.1687998 0.2136093 0.6210001 56 45 40 
0.1699652 0.2101695 0.611 62 51 42 
0.1718571 0.2077617 0.604 69 58 49 
0.1748235 0.2067297 0.601 74 65 60 
0.1777519 0.2056978 0.598 81 71 69 
0.1800349 0.2039779 0.5930001 89 87 94 
0.1819443 0.2019141 0.587 123 143 167 
0.1831449 0.1991623 0.5790001 185 217 247 
0.1865024 0.1988183 0.578 190 222 254 
0.1898473 0.1984743 0.577 188 220 252 
0.1938502 0.1988183 0.578 187 222 253 
0.197524 0.1988183 0.578 172 207 238 
0.201546 0.1991623 0.5790001 163 193 214 
0.2052262 0.1991623 0.5790001 189 219 251 
0.2092672 0.1995062 0.58 203 243 255 
0.213321 0.1998502 0.581 203 249 253 
0.2166404 0.1995062 0.58 190 226 250 
0.2203269 0.1995062 0.58 166 195 221 
0.2243998 0.1998502 0.581 184 216 248 
0.2284853 0.2001942 0.582 196 235 255 
0.2325835 0.2005381 0.583 199 242 254 
0.2362891 0.2005381 0.583 209 254 254 
0.2404064 0.2008821 0.5840001 200 244 247 
0.2445365 0.2012261 0.585 204 248 253 
0.2495279 0.202258 0.588 213 255 255 
0.2536961 0.202602 0.589 204 242 255 
0.2574399 0.202602 0.589 164 194 213 
0.2611836 0.202602 0.589 174 204 227 
0.2649274 0.202602 0.589 201 247 253 
0.2691273 0.202946 0.59 217 255 255 
0.2728775 0.202946 0.59 211 255 252 
0.2775653 0.2036339 0.592 200 239 255 
0.2818034 0.2039779 0.5930001 175 206 243 
0.2855726 0.2039779 0.5930001 194 233 253 
0.2893418 0.2039779 0.5930001 220 255 254 
0.2940996 0.2046659 0.595 220 255 254 
0.3008853 0.2067297 0.601 196 228 250 
-0.2803376 0.2391312 0.692 0 2 0 
-0.2747429 0.2380945 0.689 6 16 19 
-0.2687939 0.2367122 0.6850001 11 28 31 
-0.2628958 0.23533 0.6810001 11 28 33 
-0.2562891 0.2332566 0.675 8 24 32 
-0.2486387 0.2301465 0.666 4 16 18 
-0.2414697 0.227382 0.6580001 8 20 22 
-0.2354843 0.2256542 0.6530001 9 21 23 
-0.2302709 0.2246175 0.65 12 29 30 
-0.2254435 0.2239263 0.648 17 33 41 
-0.2209832 0.2235807 0.647 25 42 54 
-0.2165356 0.2232352 0.646 33 53 66 
-0.2121007 0.2228896 0.645 40 69 81 
-0.2083234 0.2232352 0.646 46 75 87 
-0.2051657 0.2242719 0.649 51 77 93 
-0.2022796 0.2256542 0.6530001 53 77 91 
-0.1987359 0.2263453 0.655 53 80 93 
-0.1954638 0.227382 0.6580001 50 74 88 
-0.1921535 0.2284187 0.661 51 74 91 
-0.1888051 0.2294554 0.664 60 86 104 
-0.1854186 0.2304921 0.6670001 59 85 101 
-0.1819939 0.2315287 0.67 56 82 98 
-0.1782659 0.2322199 0.6720001 56 84 99 
-0.1750302 0.2336022 0.6760001 60 88 103 
-0.1717437 0.2349844 0.68 56 84 99 
-0.1681601 0.2360211 0.683 58 89 105 
-0.1645384 0.2370578 0.686 59 90 106 
-0.1606451 0.2377489 0.688 58 89 105 
-0.1571806 0.2391312 0.692 58 89 105 
-0.1543276 0.2415502 0.6990001 56 89 104 
-0.1511712 0.2436235 0.705 58 86 101 
-0.1479385 0.2456969 0.711 56 84 99 
-0.1440245 0.2467336 0.714 58 86 101 
-0.1398769 0.2474248 0.716 56 87 103 
-0.1358929 0.2484615 0.719 56 89 104 
-0.1318707 0.2494982 0.7220001 55 88 103 
-0.1279867 0.2508804 0.726 54 85 99 
-0.123882 0.2519171 0.729 52 83 97 
-0.1199026 0.2532994 0.733 49 82 95 
-0.1161869 0.2553728 0.739 48 81 94 
-0.1120932 0.256755 0.743 47 80 93 
-0.1078041 0.2577917 0.7460001 45 78 91 
-0.1034768 0.2588284 0.749 47 80 93 
-0.09897965 0.2595195 0.751 51 82 96 
-0.09458249 0.2605562 0.754 48 81 94 
-0.0901472 0.2615929 0.757 48 81 94 
-0.08567378 0.2626296 0.7600001 53 86 99 
-0.08137495 0.2643574 0.765 57 88 102 
-0.07691256 0.2657397 0.7690001 57 88 102 
-0.07239931 0.267122 0.7730001 59 90 104 
-0.06757329 0.2674676 0.774 60 91 105 
-0.007841175 0.15585 0.451 40 58 67 
-0.004974545 0.15585 0.451 19 25 25 
-0.002098568 0.1551588 0.449 18 25 19 
0.0007519855 0.1544677 0.447 24 25 21 
0.006117714 0.1468652 0.425 38 38 34 
0.008777582 0.1461741 0.423 50 47 44 
0.01143913 0.1458286 0.422 63 60 57 
0.01408797 0.145483 0.421 71 68 65 
0.0167241 0.1451374 0.42 78 78 74 
0.01939368 0.1451374 0.42 87 86 86 
0.02206327 0.1451374 0.42 97 93 96 
0.02473286 0.1451374 0.42 105 101 104 
0.02740245 0.1451374 0.42 116 115 119 
0.03014364 0.145483 0.421 127 126 130 
0.03289754 0.1458286 0.422 131 134 137 
0.03566416 0.1461741 0.423 139 139 143 
0.03853415 0.1468652 0.425 146 146 150 
0.04142957 0.1475564 0.427 151 151 155 
0.04445379 0.1485931 0.43 156 159 162 
0.04740642 0.1492842 0.432 160 160 164 
0.05026838 0.1496298 0.433 166 166 170 
0.112531 0.3175745 0.919 165 165 167 
0.1185011 0.3179201 0.92 64 73 83 
0.124484 0.3182656 0.9210001 19 29 36 
0.1548248 0.2228896 0.645 124 121 118 
0.1579389 0.2215074 0.641 76 81 86 
0.1610022 0.2201251 0.637 54 48 50 
0.1642738 0.2190884 0.634 43 33 31 
0.1669763 0.2173606 0.629 50 41 36 
0.1685279 0.2142505 0.62 59 45 39 
0.1699652 0.2111404 0.611 66 52 44 
0.1721416 0.209067 0.605 70 59 50 
0.1751144 0.2080303 0.6020001 76 65 58 
0.1783463 0.2073392 0.6 82 71 66 
0.1803385 0.2052658 0.594 89 86 83 
0.1819443 0.2028468 0.587 93 101 120 
0.1831449 0.2000823 0.5790001 190 223 250 
0.1858571 0.1990456 0.576 193 231 254 
0.1895183 0.1990456 0.576 193 231 254 
0.1931794 0.1990456 0.576 186 221 250 
0.1971823 0.1993912 0.577 185 220 249 
0.2011979 0.1997367 0.578 164 194 215 
0.2052262 0.2000823 0.5790001 186 216 248 
0.2089064 0.2000823 0.5790001 198 235 254 
0.2129538 0.2004279 0.58 203 252 255 
0.2162669 0.2000823 0.5790001 192 228 252 
0.2199471 0.2000823 0.5790001 165 194 220 
0.2240135 0.2004279 0.58 184 216 248 
0.2280927 0.2007734 0.581 200 239 255 
0.2321846 0.201119 0.582 199 242 254 
0.2358838 0.201119 0.582 206 250 253 
0.2399948 0.2014646 0.583 206 251 251 
0.2441185 0.2018102 0.5840001 205 249 254 
0.2486792 0.2025013 0.586 213 255 255 
0.2532653 0.2031924 0.588 202 242 253 
0.2570027 0.2031924 0.588 169 196 218 
0.2611836 0.203538 0.589 166 196 217 
0.2649274 0.203538 0.589 201 247 253 
0.2686712 0.203538 0.589 217 255 255 
0.2728775 0.2038835 0.59 211 255 252 
0.2770965 0.2042291 0.591 203 243 255 
0.2813282 0.2045747 0.592 176 207 246 
0.285091 0.2045747 0.592 193 229 253 
0.2893418 0.2049202 0.5930001 218 255 254 
0.2936053 0.2052658 0.594 219 255 253 
0.3003847 0.2073392 0.6 198 228 249 
-0.2803376 0.2402308 0.692 0 2 0 
-0.2747429 0.2391893 0.689 8 20 22 
-0.2687939 0.2378007 0.6850001 11 28 31 
-0.2628958 0.2364121 0.6810001 11 28 33 
-0.2562891 0.2343292 0.675 10 26 34 
-0.2486387 0.2312048 0.666 4 16 18 
-0.2414697 0.2284276 0.6580001 8 20 22 
-0.2354843 0.2266918 0.6530001 9 21 23 
-0.2302709 0.2256503 0.65 13 27 31 
-0.2254435 0.224956 0.648 19 35 43 
-0.2209832 0.2246089 0.647 24 42 51 
-0.2162004 0.2239145 0.645 33 50 62 
-0.2121007 0.2239145 0.645 39 68 80 
-0.2083234 0.2242617 0.646 46 75 87 
-0.2048496 0.224956 0.648 51 78 91 
-0.2019699 0.2263446 0.652 52 79 92 
-0.1984325 0.2270389 0.654 53 80 93 
-0.1951667 0.2280804 0.657 50 74 88 
-0.1918628 0.2291219 0.66 54 77 94 
-0.1885208 0.2301633 0.663 60 86 104 
-0.1851406 0.2312048 0.666 59 85 101 
-0.1817223 0.2322462 0.669 56 82 98 
-0.1782659 0.2332877 0.6720001 56 84 99 
-0.1747713 0.2343292 0.675 59 87 102 
-0.1714911 0.2357178 0.679 54 85 99 
-0.1679139 0.2367593 0.682 58 89 105 
-0.1642986 0.2378007 0.6850001 58 89 105 
-0.1606451 0.2388422 0.688 58 89 105 
-0.1569535 0.2398836 0.691 58 89 105 
-0.1541068 0.2423137 0.698 56 89 104 
-0.1511712 0.2447438 0.705 58 86 101 
-0.1477305 0.2464796 0.71 56 84 99 
-0.1440245 0.2478682 0.714 58 86 101 
-0.1396815 0.2482153 0.715 57 88 104 
-0.1357039 0.2492568 0.7180001 55 88 103 
-0.1318707 0.2506454 0.7220001 55 88 103 
-0.1278105 0.2516869 0.725 54 85 99 
-0.123882 0.2530755 0.729 53 84 98 
-0.1199026 0.2544641 0.733 49 82 95 
-0.1158725 0.2558528 0.737 48 81 94 
-0.1119423 0.2575885 0.742 47 80 93 
-0.107515 0.2582828 0.744 48 80 91 
-0.1032005 0.2593243 0.747 47 81 91 
-0.09871606 0.2600186 0.749 51 82 96 
-0.09445705 0.2614072 0.753 47 80 93 
-0.09002812 0.2624487 0.756 48 81 94 
-0.08567378 0.2638373 0.7600001 52 85 98 
-0.08116221 0.2648787 0.763 57 88 102 
-0.07681254 0.2666145 0.768 57 88 102 
-0.07221199 0.267656 0.771 59 90 104 
-0.06739869 0.2680031 0.772 59 90 104 
-0.007841175 0.1565666 0.451 35 53 62 
-0.004974545 0.1565666 0.451 19 25 25 
-0.002098568 0.1558723 0.449 18 25 19 
0.0007519855 0.155178 0.447 22 26 21 
0.004778246 0.1478878 0.426 32 33 29 
0.007450826 0.1471934 0.424 44 44 40 
0.01012191 0.1468463 0.423 57 54 51 
0.01278028 0.1464991 0.422 65 62 59 
0.01542594 0.146152 0.421 74 73 73 
0.01805889 0.1458048 0.42 82 82 78 
0.02072848 0.1458048 0.42 90 89 91 
0.02339807 0.1458048 0.42 99 98 100 
0.02612972 0.146152 0.421 111 110 112 
0.02880567 0.146152 0.421 122 121 125 
0.03148162 0.146152 0.421 131 131 135 
0.03431983 0.1468463 0.423 134 137 140 
0.03718346 0.1475406 0.425 144 144 148 
0.03997868 0.1478878 0.426 149 149 153 
0.04298702 0.1489292 0.429 154 154 158 
0.04603349 0.1499707 0.432 159 159 163 
0.04900518 0.150665 0.434 164 164 168 
0.1093718 0.3183405 0.9170001 167 167 171 
0.1155773 0.319382 0.92 151 151 155 
0.121425 0.319382 0.92 18 29 38 
0.127411 0.3197291 0.9210001 14 26 30 
0.156145 0.2228731 0.642 103 103 107 
0.1592274 0.2214845 0.638 62 61 63 
0.1625148 0.220443 0.6350001 44 36 33 
0.1652396 0.2187072 0.6300001 50 41 34 
0.1673635 0.2162772 0.623 57 46 39 
0.1691234 0.2134999 0.615 64 50 42 
0.1707816 0.2107227 0.6070001 70 56 48 
0.1740644 0.2100284 0.605 74 63 54 
0.1770276 0.2089869 0.6020001 80 69 62 
0.1799528 0.2079455 0.599 84 80 73 
0.1813059 0.2051682 0.591 91 86 84 
0.1825573 0.202391 0.583 112 126 148 
0.1840265 0.1999609 0.576 194 232 255 
0.1873618 0.1996137 0.575 199 242 254 
0.1910166 0.1996137 0.575 191 233 250 
0.1946714 0.1996137 0.575 200 237 255 
0.1986711 0.1999609 0.576 181 216 245 
0.2026836 0.2003081 0.577 174 201 225 
0.2067087 0.2006552 0.578 190 225 254 
0.2107465 0.2010024 0.5790001 204 248 255 
0.2144268 0.2010024 0.5790001 202 251 254 
0.218107 0.2010024 0.5790001 177 207 239 
0.2217872 0.2010024 0.5790001 169 200 227 
0.2254674 0.2010024 0.5790001 197 236 255 
0.2295434 0.2013495 0.58 195 238 250 
0.2336321 0.2016967 0.581 202 245 255 
0.2377335 0.2020438 0.582 211 255 255 
0.2418476 0.202391 0.583 200 244 247 
0.2459745 0.2027381 0.5840001 205 251 253 
0.2505415 0.2034324 0.586 213 255 255 
0.255134 0.2041267 0.588 197 228 253 
0.2588715 0.2041267 0.588 161 188 208 
0.2626089 0.2041267 0.588 180 211 238 
0.2663463 0.2041267 0.588 212 255 255 
0.2705431 0.2044739 0.589 214 255 253 
0.2747525 0.2048211 0.59 205 250 250 
0.2789747 0.2051682 0.591 192 228 254 
0.2832096 0.2055154 0.592 184 213 252 
0.2869724 0.2055154 0.592 205 249 254 
0.2912264 0.2058625 0.5930001 223 255 255 
0.296488 0.206904 0.596 212 252 254 
0.3032992 0.2089869 0.6020001 172 197 220 
-0.2777365 0.2409817 0.691 0 9 7 
-0.271762 0.2395867 0.687 12 29 32 
-0.2662277 0.2385405 0.684 3 20 23 
-0.2599657 0.2367967 0.679 17 31 37 
-0.2522613 0.233658 0.67 3 20 25 
-0.2450415 0.2308681 0.6620001 5 17 19 
-0.2382871 0.2284269 0.655 5 17 19 
-0.2326941 0.2270319 0.651 16 30 34 
-0.2278541 0.2263345 0.649 7 21 27 
-0.2230394 0.225637 0.647 23 41 50 
-0.2182503 0.2249395 0.645 25 43 52 
-0.2138185 0.2245907 0.6440001 33 60 71 
-0.2100508 0.2249395 0.645 43 72 84 
-0.2065897 0.225637 0.647 51 75 89 
-0.2031031 0.2263345 0.649 53 77 91 
-0.1998978 0.2273807 0.652 54 81 94 
-0.1966542 0.2284269 0.655 52 79 92 
-0.1933726 0.2294731 0.6580001 50 74 88 
-0.1897653 0.2301706 0.66 56 82 98 
-0.1866949 0.2315656 0.664 60 86 104 
-0.183024 0.2322631 0.666 59 85 101 
-0.1798646 0.233658 0.67 56 84 99 
-0.1761302 0.2343556 0.6720001 59 87 102 
-0.1728818 0.2357505 0.6760001 55 83 98 
-0.1693332 0.2367967 0.679 58 89 103 
-0.1657465 0.237843 0.682 59 90 106 
-0.1623583 0.2392379 0.686 58 89 105 
-0.1586889 0.2402842 0.689 57 88 104 
-0.1554293 0.2420279 0.694 56 89 104 
-0.1525414 0.2444691 0.701 54 85 101 
-0.1493532 0.2465616 0.707 56 85 97 
-0.1458838 0.2483053 0.712 58 86 101 
-0.1417553 0.2490028 0.714 59 87 102 
-0.1376014 0.2497002 0.716 57 88 104 
-0.1336078 0.2507465 0.719 53 86 101 
-0.1295762 0.2517927 0.7220001 56 87 101 
-0.1258526 0.2535364 0.7270001 56 87 101 
-0.1217319 0.2545826 0.73 50 83 96 
-0.1178939 0.2563264 0.735 48 81 94 
-0.1138383 0.2577213 0.739 47 80 93 
-0.1095842 0.2587676 0.742 48 79 93 
-0.1051506 0.2594651 0.744 48 82 92 
-0.1008265 0.2605113 0.747 49 81 92 
-0.09646431 0.2615575 0.7500001 49 82 95 
-0.09218623 0.2629525 0.754 47 80 93 
-0.08785731 0.2643475 0.758 47 82 95 
-0.08336798 0.2653937 0.761 56 87 101 
-0.07894373 0.2667887 0.765 54 85 99 
-0.07437177 0.2678349 0.768 57 88 102 
-0.06967121 0.2685324 0.77 59 90 104 
-0.009295055 0.157632 0.452 42 73 87 
-0.00640786 0.1572833 0.451 23 29 29 
-0.003533378 0.1569345 0.45 18 24 22 
-0.0006686171 0.1558883 0.447 20 24 19 
0.003448498 0.1496109 0.429 27 31 26 
0.006132109 0.1485647 0.426 38 38 34 
