ply
format ascii 1.0
element vertex 1266
property float32 x
property float32 y
property float32 z
property uchar red
property uchar green
property uchar blue
end_header
0.09345943 0.12989 0.494 128 111 113 
0.0950294 0.12989 0.494 131 114 116 
0.09679493 0.1301529 0.495 134 117 119 
0.09836807 0.1301529 0.495 135 118 120 
0.1001431 0.1304158 0.496 142 122 125 
0.1019245 0.1306788 0.497 147 127 130 
0.103504 0.1306788 0.497 152 131 138 
0.1050835 0.1306788 0.497 153 132 139 
0.1068777 0.1309417 0.498 145 127 133 
0.1084604 0.1309417 0.498 148 130 136 
0.110264 0.1312046 0.499 133 115 123 
0.1118499 0.1312046 0.499 115 94 101 
0.1134357 0.1312046 0.499 116 93 101 
0.1152521 0.1314676 0.5 110 87 95 
0.1168411 0.1314676 0.5 110 87 97 
0.1184302 0.1314676 0.5 112 89 101 
0.1202593 0.1317305 0.501 108 82 99 
0.1218515 0.1317305 0.501 112 83 101 
0.1236901 0.1319935 0.502 118 79 101 
0.1252855 0.1319935 0.502 116 75 95 
0.1271336 0.1322564 0.503 124 79 98 
0.1289881 0.1325193 0.504 131 81 102 
0.1311081 0.1330452 0.506 137 86 110 
0.1332408 0.1335711 0.508 164 124 141 
0.1353862 0.134097 0.5100001 155 121 141 
0.1378129 0.1348857 0.513 169 143 162 
0.1399869 0.1354116 0.515 111 97 112 
-0.004444205 0.1497207 0.566 44 35 26 
-0.002617367 0.1481335 0.56 47 38 31 
-0.0008331537 0.14734 0.557 48 39 32 
0.002678067 0.1457528 0.551 59 48 41 
0.004413113 0.1452238 0.549 63 52 45 
0.006135448 0.1446947 0.5470001 68 57 52 
0.007845069 0.1441657 0.545 74 63 58 
0.009559551 0.1439012 0.544 76 65 60 
0.01126768 0.1436366 0.543 78 67 62 
0.01296945 0.1433721 0.5420001 78 67 62 
0.01466486 0.1431076 0.541 78 67 62 
0.01635392 0.1428431 0.54 76 65 60 
0.01803662 0.1425785 0.539 76 65 60 
0.01971296 0.142314 0.538 75 64 59 
0.02138295 0.1420495 0.537 73 62 57 
0.02304658 0.141785 0.536 69 60 55 
0.02470386 0.1415205 0.535 66 56 56 
0.02635478 0.1412559 0.534 62 52 52 
0.02799935 0.1409914 0.5330001 60 50 50 
0.02963755 0.1407269 0.532 59 49 49 
0.03126941 0.1404624 0.531 59 49 49 
0.0328949 0.1401978 0.53 58 50 49 
0.0344488 0.1396688 0.528 59 51 50 
0.03598998 0.1391397 0.526 60 52 51 
0.03751845 0.1386107 0.524 60 52 51 
0.03903421 0.1380816 0.522 63 55 54 
0.04053726 0.1375526 0.52 61 53 52 
0.04202759 0.1370235 0.518 64 56 55 
0.04350521 0.1364945 0.516 65 57 56 
0.04505761 0.13623 0.515 66 58 57 
0.04651298 0.1357009 0.513 70 62 61 
0.04804949 0.1354364 0.512 68 60 59 
0.04957965 0.1351719 0.511 71 63 62 
0.05110345 0.1349073 0.5100001 74 64 64 
0.0525175 0.1343783 0.508 76 66 66 
0.05402541 0.1341138 0.507 76 66 66 
0.0556367 0.1341138 0.507 77 65 65 
0.05713508 0.1338492 0.506 78 66 66 
0.05862709 0.1335847 0.505 78 66 66 
0.06011275 0.1333202 0.504 82 70 70 
0.06159205 0.1330557 0.503 82 70 70 
0.063065 0.1327911 0.502 82 70 70 
0.06453159 0.1325266 0.501 84 72 72 
0.06612381 0.1325266 0.501 85 73 73 
0.06758086 0.1322621 0.5 88 73 74 
0.06903157 0.1319976 0.499 91 76 77 
0.07061743 0.1319976 0.499 91 76 77 
0.07220329 0.1319976 0.499 92 77 78 
0.07364129 0.1317331 0.498 93 81 81 
0.07522397 0.1317331 0.498 96 84 84 
0.07680666 0.1317331 0.498 99 87 87 
0.07823192 0.1314685 0.497 99 87 87 
0.07981144 0.1314685 0.497 97 85 85 
0.08139094 0.1314685 0.497 102 87 88 
0.08280351 0.131204 0.496 100 85 86 
0.08437984 0.131204 0.496 101 86 85 
0.08595616 0.131204 0.496 105 88 88 
0.08735602 0.1309395 0.495 110 93 95 
0.08892917 0.1309395 0.495 116 99 101 
0.09050232 0.1309395 0.495 121 104 106 
0.09188946 0.130675 0.494 126 109 111 
0.09345943 0.130675 0.494 127 110 112 
0.0950294 0.130675 0.494 130 113 115 
0.09679493 0.1309395 0.495 133 116 118 
0.09836807 0.1309395 0.495 135 115 116 
0.1001431 0.131204 0.496 140 120 121 
0.1019245 0.1314685 0.497 145 125 126 
0.103504 0.1314685 0.497 150 130 133 
0.105295 0.1317331 0.498 151 131 134 
0.1068777 0.1317331 0.498 145 124 131 
0.1086781 0.1319976 0.499 136 111 119 
0.110264 0.1319976 0.499 108 80 91 
0.1118499 0.1319976 0.499 105 77 88 
0.113663 0.1322621 0.5 105 77 88 
0.1152521 0.1322621 0.5 102 74 85 
0.1168411 0.1322621 0.5 101 72 88 
0.118667 0.1325266 0.501 109 85 104 
0.1202593 0.1325266 0.501 108 84 103 
0.1218515 0.1325266 0.501 126 99 121 
0.1236901 0.1327911 0.502 118 82 105 
0.1255351 0.1330557 0.503 122 83 105 
0.1273864 0.1333202 0.504 137 96 118 
0.1292441 0.1335847 0.505 149 108 130 
0.1311081 0.1338492 0.506 144 101 126 
0.1332408 0.1343783 0.508 162 126 147 
0.1353862 0.1349073 0.5100001 162 131 152 
0.1378129 0.1357009 0.513 168 141 163 
0.1399869 0.13623 0.515 154 134 154 
-0.02555808 0.1588696 0.597 45 40 36 
-0.0235815 0.1583374 0.595 43 36 30 
-0.01192728 0.1543457 0.58 39 30 21 
-0.01006661 0.1540796 0.5790001 42 31 22 
-0.008183874 0.1532812 0.576 45 34 25 
-0.006331239 0.152749 0.574 46 35 26 
-0.002617367 0.1490234 0.56 48 39 32 
-0.000831658 0.147959 0.5560001 50 41 34 
0.002678067 0.1466284 0.551 60 49 42 
0.004405075 0.1458301 0.548 63 52 47 
0.006135448 0.145564 0.5470001 67 56 51 
0.007845069 0.1450317 0.545 74 63 58 
0.009559551 0.1447656 0.544 76 65 60 
0.01126768 0.1444995 0.543 80 68 66 
0.01296945 0.1442334 0.5420001 78 67 62 
0.01466486 0.1439673 0.541 78 67 62 
0.01635392 0.1437012 0.54 76 65 60 
0.01803662 0.143435 0.539 76 65 60 
0.01971296 0.1431689 0.538 74 63 58 
0.02138295 0.1429028 0.537 74 63 58 
0.02304658 0.1426367 0.536 71 62 57 
0.02470386 0.1423706 0.535 66 56 56 
0.02635478 0.1421045 0.534 62 52 52 
0.02799935 0.1418384 0.5330001 60 50 50 
0.02963755 0.1415723 0.532 59 49 49 
0.03126941 0.1413061 0.531 59 49 49 
0.0328949 0.14104 0.53 59 49 49 
0.03451404 0.1407739 0.529 59 51 50 
0.0360584 0.1402417 0.527 59 51 50 
0.03759005 0.1397095 0.525 60 52 51 
0.03910899 0.1391772 0.523 63 55 54 
0.04061521 0.138645 0.521 61 53 52 
0.04210873 0.1381128 0.5190001 64 56 55 
0.04358952 0.1375806 0.517 64 56 55 
0.04505761 0.1370483 0.515 66 58 57 
0.04660365 0.1367822 0.514 68 60 59 
0.04804949 0.13625 0.512 68 60 59 
0.04957965 0.1359839 0.511 71 63 62 
0.05110345 0.1357178 0.5100001 74 64 64 
0.05262088 0.1354516 0.509 76 66 66 
0.05413197 0.1351855 0.508 75 65 65 
0.0556367 0.1349194 0.507 75 65 65 
0.05724799 0.1349194 0.507 78 66 66 
0.05874319 0.1346533 0.506 78 66 66 
0.06023202 0.1343872 0.505 82 70 70 
0.0617145 0.1341211 0.504 81 69 69 
0.06319063 0.133855 0.503 82 70 70 
0.0646604 0.1335889 0.502 84 72 72 
0.06612381 0.1333227 0.501 85 73 73 
0.06758086 0.1330566 0.5 88 73 74 
0.06916991 0.1330566 0.5 90 75 76 
0.07061743 0.1327905 0.499 91 76 77 
0.07220329 0.1327905 0.499 92 77 78 
0.07378916 0.1327905 0.499 93 81 81 
0.07522397 0.1325244 0.498 95 83 83 
0.07680666 0.1325244 0.498 99 87 87 
0.07823192 0.1322583 0.497 98 86 86 
0.07981144 0.1322583 0.497 96 84 84 
0.08139094 0.1322583 0.497 101 84 86 
0.08297045 0.1322583 0.497 100 83 85 
0.08437984 0.1319922 0.496 102 85 85 
0.08595616 0.1319922 0.496 103 86 86 
0.08753249 0.1319922 0.496 109 92 94 
0.08892917 0.1317261 0.495 115 98 100 
0.09050232 0.1317261 0.495 119 102 104 
0.09207547 0.1317261 0.495 123 106 108 
0.09345943 0.13146 0.494 124 107 109 
0.0950294 0.13146 0.494 128 111 111 
0.09679493 0.1317261 0.495 129 112 112 
0.09836807 0.1317261 0.495 132 112 113 
0.1001431 0.1319922 0.496 139 119 120 
0.1019245 0.1322583 0.497 145 125 126 
0.1037123 0.1325244 0.498 149 129 132 
0.105295 0.1325244 0.498 150 130 133 
0.1068777 0.1325244 0.498 138 115 123 
0.1086781 0.1327905 0.499 83 50 65 
0.110264 0.1327905 0.499 87 54 69 
0.112074 0.1330566 0.5 91 61 75 
0.113663 0.1330566 0.5 96 68 81 
0.1154826 0.1333227 0.501 98 70 83 
0.1170748 0.1333227 0.501 99 73 92 
0.118667 0.1333227 0.501 114 91 112 
0.1202593 0.1333227 0.501 115 92 113 
0.1220947 0.1335889 0.502 136 111 135 
0.1236901 0.1335889 0.502 122 90 116 
0.1255351 0.133855 0.503 131 99 123 
0.1273864 0.1341211 0.504 154 124 147 
0.1292441 0.1343872 0.505 159 129 152 
0.1313672 0.1349194 0.507 156 124 150 
0.1335031 0.1354516 0.509 166 134 158 
0.1353862 0.1357178 0.5100001 164 137 159 
0.1378129 0.1365161 0.513 166 141 163 
0.1399869 0.1370483 0.515 165 142 163 
-0.02945104 0.1603537 0.599 44 50 48 
-0.02745539 0.1598183 0.597 46 43 38 
-0.02551527 0.1595506 0.596 45 38 32 
-0.0235815 0.1592829 0.595 42 35 29 
-0.02165409 0.1590152 0.594 39 32 24 
-0.01973303 0.1587475 0.5930001 39 32 24 
-0.01784843 0.1587475 0.5930001 39 32 22 
-0.01192728 0.1552673 0.58 40 31 22 
-0.01003184 0.1544642 0.577 43 32 23 
-0.008183874 0.1541965 0.576 46 35 26 
-0.006320209 0.1533934 0.573 47 36 27 
-0.002617367 0.1499133 0.56 48 39 32 
-0.0008301621 0.1485748 0.555 50 41 34 
0.000931991 0.1483071 0.554 56 45 38 
0.002673207 0.1472363 0.55 60 49 44 
0.004405075 0.1467009 0.548 64 53 48 
0.006135448 0.1464332 0.5470001 67 56 51 
0.007845069 0.1458977 0.545 74 63 58 
0.009559551 0.14563 0.544 76 64 62 
0.01126768 0.1453623 0.543 80 68 66 
0.01296945 0.1450946 0.5420001 80 68 66 
0.01466486 0.1448269 0.541 80 68 66 
0.01635392 0.1445592 0.54 77 65 63 
0.01803662 0.1442915 0.539 77 65 63 
0.01971296 0.1440238 0.538 75 64 59 
0.02138295 0.1437561 0.537 75 64 59 
0.02304658 0.1434884 0.536 72 62 60 
0.02470386 0.1432207 0.535 66 56 56 
0.02640413 0.1432207 0.535 62 52 52 
0.02805188 0.142953 0.534 61 51 51 
0.02969327 0.1426853 0.5330001 59 49 49 
0.03132829 0.1424176 0.532 59 49 49 
0.0328949 0.1418822 0.53 59 49 49 
0.03451404 0.1416145 0.529 58 50 49 
0.0360584 0.1410791 0.527 59 51 50 
0.03759005 0.1405437 0.525 59 51 50 
0.03910899 0.1400083 0.523 63 55 54 
0.04061521 0.1394729 0.521 61 53 52 
0.04218986 0.1392052 0.52 64 56 55 
0.04367384 0.1386698 0.518 64 56 55 
0.0451451 0.1381344 0.516 66 58 57 
0.04660365 0.137599 0.514 68 60 59 
0.04814334 0.1373313 0.513 68 60 59 
0.04967667 0.1370636 0.512 71 63 62 
0.05120365 0.1367959 0.511 74 64 64 
0.05272427 0.1365282 0.5100001 76 66 66 
0.05423853 0.1362605 0.509 75 65 65 
0.05574644 0.1359928 0.508 75 65 65 
0.05724799 0.1357251 0.507 78 66 66 
0.05885928 0.1357251 0.507 78 66 66 
0.06035129 0.1354574 0.506 81 69 69 
0.06183695 0.1351897 0.505 81 69 69 
0.06331626 0.134922 0.504 82 70 70 
0.0647892 0.1346543 0.503 84 72 72 
0.0662558 0.1343866 0.502 88 73 74 
0.06771603 0.1341189 0.501 87 72 73 
0.06916991 0.1338511 0.5 90 75 76 
0.07061743 0.1335834 0.499 91 76 77 
0.07220329 0.1335834 0.499 92 77 78 
0.07378916 0.1335834 0.499 95 80 81 
0.07522397 0.1333157 0.498 95 83 83 
0.07680666 0.1333157 0.498 98 86 86 
0.07823192 0.133048 0.497 97 85 85 
0.07981144 0.133048 0.497 95 83 83 
0.08139094 0.133048 0.497 101 84 84 
0.08297045 0.133048 0.497 99 82 82 
0.08437984 0.1327803 0.496 101 84 84 
0.08595616 0.1327803 0.496 103 86 86 
0.08753249 0.1327803 0.496 108 91 91 
0.08910882 0.1327803 0.496 114 97 99 
0.09050232 0.1325126 0.495 117 100 102 
0.09207547 0.1325126 0.495 121 104 106 
0.09345943 0.1322449 0.494 122 105 107 
0.09522177 0.1325126 0.495 124 107 107 
0.09679493 0.1325126 0.495 126 109 109 
0.09856679 0.1327803 0.496 131 111 112 
0.100345 0.133048 0.497 138 118 119 
0.1019245 0.133048 0.497 145 125 126 
0.1037123 0.1333157 0.498 148 126 128 
0.105295 0.1333157 0.498 149 129 130 
0.1070923 0.1335834 0.499 108 85 95 
0.1086781 0.1335834 0.499 85 56 72 
0.110485 0.1338511 0.5 84 53 70 
0.112074 0.1338511 0.5 92 67 79 
0.1138904 0.1341189 0.501 96 72 87 
0.1154826 0.1341189 0.501 103 79 94 
0.1170748 0.1341189 0.501 101 77 96 
0.118667 0.1341189 0.501 114 91 112 
0.1204993 0.1343866 0.502 118 95 118 
0.1220947 0.1343866 0.502 131 106 130 
0.1239365 0.1346543 0.503 127 97 122 
0.1255351 0.1346543 0.503 141 114 138 
0.1273864 0.134922 0.504 154 131 154 
0.1292441 0.1351897 0.505 160 135 159 
0.1313672 0.1357251 0.507 162 136 163 
0.1335031 0.1362605 0.509 167 139 166 
0.1353862 0.1365282 0.5100001 166 140 167 
0.1378129 0.1373313 0.513 167 142 166 
-0.03135471 0.1613055 0.599 42 45 48 
-0.02940188 0.1610362 0.598 46 46 40 
-0.0274094 0.1604976 0.596 44 40 33 
-0.02547246 0.1602283 0.595 44 37 31 
-0.02354187 0.159959 0.594 42 35 29 
-0.02161763 0.1596898 0.5930001 40 33 25 
-0.01969975 0.1594205 0.592 40 33 23 
-0.01775813 0.1588819 0.59 40 31 22 
-0.01588306 0.1588819 0.59 40 31 22 
-0.01190672 0.1559197 0.5790001 41 32 23 
-0.01001445 0.1551118 0.576 45 34 25 
-0.008155458 0.1545732 0.574 47 36 27 
-0.006309179 0.1540346 0.572 48 37 28 
-0.002617367 0.1508031 0.56 52 41 34 
-0.0008301621 0.1494567 0.555 53 42 35 
0.0009303087 0.1489181 0.553 56 45 38 
0.002673207 0.1481102 0.55 61 50 45 
0.004405075 0.1475717 0.548 64 53 48 
0.006135448 0.1473024 0.5470001 68 57 52 
0.007845069 0.1467638 0.545 74 62 60 
0.009559551 0.1464945 0.544 76 64 62 
0.01126768 0.1462252 0.543 80 68 66 
0.01299338 0.1462252 0.543 78 66 64 
0.01466486 0.1456866 0.541 81 69 67 
0.01635392 0.1454173 0.54 78 66 64 
0.01803662 0.145148 0.539 80 65 64 
0.01971296 0.1448787 0.538 78 63 62 
0.02138295 0.1446094 0.537 75 64 59 
0.02304658 0.1443401 0.536 72 63 58 
0.02475004 0.1443401 0.536 67 57 57 
0.02640413 0.1440709 0.535 62 52 52 
0.02805188 0.1438016 0.534 61 51 51 
0.02969327 0.1435323 0.5330001 59 51 50 
0.03132829 0.143263 0.532 59 51 50 
0.03295697 0.1429937 0.531 60 50 50 
0.03451404 0.1424551 0.529 58 50 49 
0.03612682 0.1421858 0.528 59 51 50 
0.03766165 0.1416472 0.526 59 51 50 
0.03918377 0.1411087 0.524 63 55 54 
0.04069317 0.1405701 0.522 63 55 54 
0.042271 0.1403008 0.521 65 57 56 
0.04375815 0.1397622 0.5190001 65 57 56 
0.04523259 0.1392236 0.517 66 58 57 
0.04669432 0.138685 0.515 68 60 59 
0.04814334 0.1381464 0.513 68 60 59 
0.04967667 0.1378772 0.512 71 63 62 
0.05120365 0.1376079 0.511 74 64 64 
0.05272427 0.1373386 0.5100001 76 66 66 
0.05434509 0.1373386 0.5100001 76 66 66 
0.05585617 0.1370693 0.509 75 65 65 
0.0573609 0.1368 0.508 77 65 65 
0.05885928 0.1365307 0.507 78 66 66 
0.06035129 0.1362614 0.506 80 68 68 
0.06183695 0.1359921 0.505 81 69 69 
0.06331626 0.1357228 0.504 83 71 71 
0.0647892 0.1354535 0.503 84 72 72 
0.0662558 0.1351842 0.502 87 72 73 
0.06771603 0.134915 0.501 87 72 73 
0.06916991 0.1346457 0.5 90 75 76 
0.07075895 0.1346457 0.5 90 75 76 
0.07220329 0.1343764 0.499 92 77 78 
0.07378916 0.1343764 0.499 94 79 80 
0.07522397 0.1341071 0.498 95 80 81 
0.07680666 0.1341071 0.498 99 84 85 
0.07823192 0.1338378 0.497 98 83 84 
0.07981144 0.1338378 0.497 97 82 83 
0.08139094 0.1338378 0.497 101 84 84 
0.08297045 0.1338378 0.497 100 83 83 
0.08437984 0.1335685 0.496 101 84 84 
0.08595616 0.1335685 0.496 103 86 86 
0.08753249 0.1335685 0.496 107 90 90 
0.08910882 0.1335685 0.496 113 96 96 
0.09050232 0.1332992 0.495 116 99 101 
0.09207547 0.1332992 0.495 119 99 102 
0.09364862 0.1332992 0.495 123 103 106 
0.09522177 0.1332992 0.495 125 105 106 
0.09679493 0.1332992 0.495 126 106 107 
0.09856679 0.1335685 0.496 130 110 111 
0.100345 0.1338378 0.497 137 117 118 
0.1021296 0.1341071 0.498 144 124 125 
0.1037123 0.1341071 0.498 147 127 128 
0.105295 0.1341071 0.498 146 126 129 
0.1070923 0.1343764 0.499 123 101 115 
0.1086781 0.1343764 0.499 108 86 102 
0.110485 0.1346457 0.5 94 70 89 
0.1122982 0.134915 0.501 102 78 95 
0.1138904 0.134915 0.501 100 78 94 
0.1154826 0.134915 0.501 109 87 103 
0.1173085 0.1351842 0.502 103 79 98 
0.1189039 0.1351842 0.502 112 87 109 
0.1204993 0.1351842 0.502 118 93 115 
0.1220947 0.1351842 0.502 129 104 128 
0.1239365 0.1354535 0.503 127 100 124 
0.1257846 0.1357228 0.504 138 111 135 
0.1273864 0.1357228 0.504 156 132 158 
0.1295 0.1362614 0.506 159 135 161 
0.1313672 0.1365307 0.507 161 137 163 
0.1335031 0.1370693 0.509 166 140 167 
0.1353862 0.1373386 0.5100001 167 141 168 
0.1378129 0.1381464 0.513 167 141 168 
0.1397151 0.1384157 0.514 165 142 165 
-0.03331391 0.1625282 0.6 48 47 51 
-0.03135471 0.1622574 0.599 44 43 43 
-0.02940188 0.1619865 0.598 47 45 37 
-0.0274094 0.1614447 0.596 43 39 32 
-0.02547246 0.1611738 0.595 43 36 30 
-0.02350223 0.1606321 0.5930001 40 33 25 
-0.02161763 0.1606321 0.5930001 40 33 23 
-0.01966647 0.1600903 0.591 41 32 23 
-0.01772803 0.1595486 0.589 40 31 22 
-0.01577538 0.1587359 0.586 41 32 23 
-0.01186559 0.156298 0.577 41 32 23 
-0.009997063 0.1557562 0.575 46 35 26 
-0.008127042 0.1549436 0.572 47 36 27 
-0.006287119 0.1544018 0.5700001 49 38 29 
-0.0008301621 0.1503386 0.555 54 43 36 
0.0009303087 0.1497969 0.553 57 46 39 
0.002678067 0.1492551 0.551 61 50 43 
0.004413113 0.1487133 0.549 66 55 50 
0.006135448 0.1481716 0.5470001 68 57 52 
0.007845069 0.1476298 0.545 73 61 59 
0.009559551 0.1473589 0.544 76 64 62 
0.01126768 0.1470881 0.543 80 68 66 
0.01299338 0.1470881 0.543 78 66 64 
0.01466486 0.1465463 0.541 81 69 67 
0.01635392 0.1462754 0.54 81 69 67 
0.01803662 0.1460045 0.539 78 66 64 
0.01971296 0.1457337 0.538 76 64 62 
0.02138295 0.1454628 0.537 76 65 60 
0.02304658 0.1451919 0.536 73 64 59 
0.02475004 0.1451919 0.536 68 58 56 
0.02640413 0.144921 0.535 65 55 53 
0.02805188 0.1446501 0.534 62 52 50 
0.02969327 0.1443793 0.5330001 61 51 51 
0.03132829 0.1441084 0.532 61 51 51 
0.03295697 0.1438375 0.531 61 51 51 
0.03457928 0.1435666 0.53 58 50 49 
0.03612682 0.1430248 0.528 58 50 49 
0.03773325 0.142754 0.527 58 50 49 
0.03925855 0.1422122 0.525 61 53 52 
0.04077112 0.1416704 0.523 63 55 54 
0.04235213 0.1413996 0.522 64 56 55 
0.04384246 0.1408578 0.52 65 57 56 
0.04532008 0.140316 0.518 65 57 56 
0.04678499 0.1397743 0.516 69 59 59 
0.04823719 0.1392325 0.514 70 62 61 
0.0497737 0.1389616 0.513 71 63 62 
0.05130385 0.1386908 0.512 74 64 64 
0.05282765 0.1384199 0.511 75 65 65 
0.05434509 0.138149 0.5100001 76 66 66 
0.05585617 0.1378781 0.509 75 65 65 
0.0573609 0.1376072 0.508 77 65 65 
0.05885928 0.1373364 0.507 78 66 66 
0.06035129 0.1370655 0.506 80 68 68 
0.0619594 0.1370655 0.506 81 69 69 
0.06331626 0.1365237 0.504 83 71 71 
0.064918 0.1365237 0.504 83 71 71 
0.06638778 0.1362528 0.503 85 73 73 
0.06771603 0.1357111 0.501 87 72 73 
0.06930826 0.1357111 0.501 88 73 74 
0.07075895 0.1354402 0.5 90 75 76 
0.07220329 0.1351693 0.499 92 77 78 
0.07378916 0.1351693 0.499 94 79 80 
0.07522397 0.1348984 0.498 94 79 80 
0.07680666 0.1348984 0.498 97 82 83 
0.07823192 0.1346276 0.497 97 82 83 
0.07981144 0.1346276 0.497 97 82 83 
0.08139094 0.1346276 0.497 101 84 84 
0.08297045 0.1346276 0.497 100 83 83 
0.08437984 0.1343567 0.496 101 84 84 
0.08595616 0.1343567 0.496 103 86 86 
0.08753249 0.1343567 0.496 107 90 90 
0.08910882 0.1343567 0.496 112 95 97 
0.09050232 0.1340858 0.495 114 97 99 
0.09207547 0.1340858 0.495 116 96 99 
0.09364862 0.1340858 0.495 122 102 105 
0.09522177 0.1340858 0.495 124 104 105 
0.09679493 0.1340858 0.495 125 105 106 
0.09856679 0.1343567 0.496 130 110 111 
0.100345 0.1346276 0.497 137 117 118 
0.1021296 0.1348984 0.498 144 124 125 
0.1037123 0.1348984 0.498 147 127 128 
0.1055064 0.1351693 0.499 147 127 130 
0.1070923 0.1351693 0.499 136 119 131 
0.1088959 0.1354402 0.5 120 103 117 
0.110485 0.1354402 0.5 106 89 105 
0.1122982 0.1357111 0.501 108 89 106 
0.1138904 0.1357111 0.501 110 88 104 
0.1157131 0.135982 0.502 111 89 105 
0.1173085 0.135982 0.502 104 79 101 
0.1189039 0.135982 0.502 113 86 108 
0.1207393 0.1362528 0.503 116 91 113 
0.1223379 0.1362528 0.503 123 98 120 
0.1239365 0.1362528 0.503 125 98 122 
0.1257846 0.1365237 0.504 129 99 124 
0.1276391 0.1367946 0.505 149 121 148 
0.1295 0.1370655 0.506 154 128 155 
0.1313672 0.1373364 0.507 160 134 163 
0.1335031 0.1378781 0.509 165 139 168 
0.1356516 0.1384199 0.511 165 141 169 
0.1378129 0.1389616 0.513 165 141 167 
0.1397151 0.1392325 0.514 164 137 161 
-0.03527946 0.1637541 0.601 54 53 53 
-0.03331391 0.1634817 0.6 50 44 46 
-0.03135471 0.1632092 0.599 47 42 40 
-0.02935271 0.1626642 0.597 47 43 36 
-0.02736342 0.1621193 0.595 45 38 30 
-0.02542965 0.1618468 0.594 43 36 28 
-0.02350223 0.1615744 0.5930001 42 35 27 
-0.02158118 0.1613019 0.592 41 32 23 
-0.0196332 0.160757 0.59 43 34 25 
-0.01769793 0.160212 0.588 41 32 23 
-0.01572154 0.1591221 0.5840001 43 34 25 
-0.01379431 0.1583047 0.581 41 32 23 
-0.01184503 0.1569424 0.576 43 34 25 
-0.009962291 0.156125 0.573 46 35 26 
-0.008112834 0.15558 0.571 47 36 27 
-0.006276089 0.1550351 0.569 49 38 29 
-0.0008301621 0.1512205 0.555 54 43 34 
0.0009303087 0.1506756 0.553 57 46 39 
0.002678067 0.1501306 0.551 62 51 44 
0.004405075 0.1493132 0.548 66 55 50 
0.006135448 0.1490408 0.5470001 69 58 53 
0.007845069 0.1484958 0.545 73 61 59 
0.009559551 0.1482234 0.544 76 64 62 
0.01126768 0.1479509 0.543 80 68 66 
0.01299338 0.1479509 0.543 80 68 66 
0.01466486 0.147406 0.541 82 70 68 
0.01635392 0.1471335 0.54 81 69 67 
0.01803662 0.146861 0.539 80 68 66 
0.01971296 0.1465885 0.538 77 65 63 
0.02138295 0.1463161 0.537 76 65 60 
0.02304658 0.1460436 0.536 74 65 60 
0.02475004 0.1460436 0.536 71 61 59 
0.02640413 0.1457711 0.535 66 56 54 
0.02805188 0.1454987 0.534 64 54 52 
0.02969327 0.1452262 0.5330001 62 52 50 
0.03132829 0.1449537 0.532 61 51 49 
0.03295697 0.1446813 0.531 61 51 49 
0.03457928 0.1444088 0.53 59 51 48 
0.03619525 0.1441363 0.529 58 50 49 
0.03780485 0.1438638 0.528 58 50 49 
0.03933332 0.1433189 0.526 61 53 52 
0.04084908 0.142774 0.524 61 53 52 
0.04243326 0.1425015 0.523 64 56 55 
0.04392678 0.1419566 0.521 64 56 55 
0.04540757 0.1414116 0.5190001 65 57 56 
0.04678499 0.1405942 0.516 69 59 59 
0.04833104 0.1403218 0.515 71 61 61 
0.0497737 0.1397768 0.513 71 63 62 
0.05130385 0.1395043 0.512 74 64 64 
0.05282765 0.1392319 0.511 75 65 65 
0.05434509 0.1389594 0.5100001 76 66 66 
0.05585617 0.1386869 0.509 77 65 65 
0.0573609 0.1384145 0.508 78 66 66 
0.05885928 0.138142 0.507 78 66 66 
0.06047056 0.138142 0.507 80 68 68 
0.0619594 0.1378695 0.506 81 69 69 
0.06344188 0.137597 0.505 83 71 71 
0.064918 0.1373246 0.504 83 71 71 
0.06638778 0.1370521 0.503 84 72 72 
0.06785119 0.1367797 0.502 86 71 72 
0.06930826 0.1365072 0.501 88 73 74 
0.07075895 0.1362347 0.5 90 75 76 
0.07220329 0.1359622 0.499 91 76 77 
0.07378916 0.1359622 0.499 94 79 80 
0.07522397 0.1356898 0.498 94 79 80 
0.07680666 0.1356898 0.498 95 80 81 
0.07838934 0.1356898 0.498 95 80 79 
0.07981144 0.1354173 0.497 95 80 79 
0.08139094 0.1354173 0.497 100 83 83 
0.08297045 0.1354173 0.497 99 82 82 
0.08437984 0.1351448 0.496 101 84 84 
0.08595616 0.1351448 0.496 103 86 86 
0.08753249 0.1351448 0.496 107 90 90 
0.08910882 0.1351448 0.496 110 93 95 
0.09068515 0.1351448 0.496 113 96 98 
0.09207547 0.1348724 0.495 117 97 100 
0.09364862 0.1348724 0.495 121 101 104 
0.09522177 0.1348724 0.495 124 104 105 
0.09699047 0.1351448 0.496 125 105 106 
0.09856679 0.1351448 0.496 131 111 112 
0.100345 0.1354173 0.497 138 118 119 
0.1021296 0.1356898 0.498 145 125 126 
0.1039205 0.1359622 0.499 147 127 128 
0.1055064 0.1359622 0.499 149 132 134 
0.1073069 0.1362347 0.5 141 124 136 
0.1088959 0.1362347 0.5 130 113 127 
0.1107059 0.1365072 0.501 119 102 116 
0.1122982 0.1365072 0.501 113 96 112 
0.1138904 0.1365072 0.501 113 94 109 
0.1157131 0.1367797 0.502 114 95 110 
0.1173085 0.1367797 0.502 108 84 103 
0.1189039 0.1367797 0.502 113 86 108 
0.1207393 0.1370521 0.503 115 88 110 
0.1223379 0.1370521 0.503 120 93 115 
0.1241829 0.1373246 0.504 122 92 115 
0.1257846 0.1373246 0.504 124 92 118 
0.1276391 0.137597 0.505 139 107 133 
0.1295 0.1378695 0.506 148 120 147 
0.1316263 0.1384145 0.508 159 131 158 
0.1335031 0.1386869 0.509 162 134 163 
0.1356516 0.1392319 0.511 164 136 165 
0.1375443 0.1395043 0.512 164 137 161 
0.1397151 0.1400493 0.514 162 131 159 
-0.03522076 0.1644351 0.6 54 49 45 
-0.03331391 0.1644351 0.6 49 44 40 
-0.03135471 0.164161 0.599 45 40 36 
-0.02935271 0.1636129 0.597 47 40 34 
-0.02736342 0.1630648 0.595 45 38 30 
-0.02538684 0.1625167 0.5930001 43 36 28 
-0.0234626 0.1622426 0.592 42 35 25 
-0.02150827 0.1616945 0.59 43 34 25 
-0.01956664 0.1611464 0.588 43 34 25 
-0.01763774 0.1605982 0.586 43 34 25 
-0.0156677 0.159502 0.582 44 35 26 
-0.01369934 0.1581317 0.577 44 35 26 
-0.01178333 0.1570355 0.573 44 35 26 
-0.009927519 0.1564874 0.571 47 36 27 
-0.008098627 0.1562133 0.5700001 48 37 28 
-0.006265059 0.1556652 0.568 49 38 29 
-0.004436352 0.154843 0.565 50 39 30 
-0.0008301621 0.1521024 0.555 55 44 35 
0.0009303087 0.1515543 0.553 57 46 39 
0.002678067 0.1510062 0.551 65 51 45 
0.004405075 0.150184 0.548 67 56 49 
0.006135448 0.14991 0.5470001 69 58 53 
0.007845069 0.1493618 0.545 74 62 60 
0.009559551 0.1490878 0.544 76 64 62 
0.01126768 0.1488137 0.543 80 68 66 
0.01296945 0.1485397 0.5420001 80 68 66 
0.01466486 0.1482656 0.541 83 71 69 
0.01635392 0.1479916 0.54 81 69 67 
0.01803662 0.1477175 0.539 81 69 67 
0.01971296 0.1474434 0.538 78 66 64 
0.02138295 0.1471694 0.537 77 65 63 
0.02308958 0.1471694 0.537 76 64 62 
0.02475004 0.1468953 0.536 72 62 60 
0.02640413 0.1466213 0.535 67 57 55 
0.02810441 0.1466213 0.535 65 55 53 
0.02974897 0.1463472 0.534 64 54 52 
0.03138718 0.1460732 0.5330001 61 51 49 
0.03301903 0.1457991 0.532 62 52 50 
0.03464453 0.145525 0.531 60 50 48 
0.03619525 0.1449769 0.529 58 50 47 
0.03780485 0.1447029 0.528 58 50 49 
0.0394081 0.1444288 0.527 61 53 52 
0.04100499 0.1441547 0.526 60 52 51 
0.0425144 0.1436066 0.524 63 55 54 
0.04401109 0.1430585 0.522 64 56 55 
0.04549506 0.1425104 0.52 64 56 55 
0.04687566 0.1416882 0.517 68 58 58 
0.04833104 0.1411401 0.515 71 61 61 
0.04987072 0.140866 0.514 71 63 62 
0.05130385 0.1403179 0.512 73 63 63 
0.05282765 0.1400439 0.511 75 65 65 
0.05434509 0.1397698 0.5100001 76 66 66 
0.05585617 0.1394957 0.509 78 66 66 
0.05747382 0.1394957 0.509 78 66 66 
0.05897537 0.1392217 0.508 78 66 66 
0.06047056 0.1389476 0.507 80 68 68 
0.0619594 0.1386736 0.506 81 69 69 
0.06344188 0.1383995 0.505 82 70 70 
0.064918 0.1381254 0.504 83 71 71 
0.06638778 0.1378514 0.503 84 72 72 
0.06785119 0.1375773 0.502 86 71 72 
0.06930826 0.1373033 0.501 87 72 73 
0.07090047 0.1373033 0.501 90 75 76 
0.07234798 0.1370292 0.5 91 76 77 
0.07378916 0.1367552 0.499 94 79 80 
0.07522397 0.1364811 0.498 93 78 79 
0.07680666 0.1364811 0.498 93 78 79 
0.07838934 0.1364811 0.498 95 80 79 
0.07981144 0.136207 0.497 95 80 79 
0.08139094 0.136207 0.497 98 83 82 
0.08297045 0.136207 0.497 99 82 82 
0.08437984 0.135933 0.496 100 83 83 
0.08595616 0.135933 0.496 103 86 86 
0.08753249 0.135933 0.496 107 90 90 
0.08910882 0.135933 0.496 110 93 93 
0.09068515 0.135933 0.496 113 96 96 
0.09207547 0.1356589 0.495 118 98 99 
0.09364862 0.1356589 0.495 121 101 104 
0.09541413 0.135933 0.496 123 103 106 
0.09699047 0.135933 0.496 126 106 107 
0.09876551 0.136207 0.497 132 112 113 
0.100345 0.136207 0.497 139 119 120 
0.1021296 0.1364811 0.498 145 125 126 
0.1039205 0.1367552 0.499 149 129 130 
0.1055064 0.1367552 0.499 151 134 136 
0.1073069 0.1370292 0.5 142 126 135 
0.1091137 0.1373033 0.501 134 117 129 
0.1107059 0.1373033 0.501 123 106 120 
0.1122982 0.1373033 0.501 114 97 111 
0.1141177 0.1375773 0.502 114 97 111 
0.1157131 0.1375773 0.502 119 100 115 
0.1173085 0.1375773 0.502 112 90 108 
0.1191408 0.1378514 0.503 113 87 106 
0.1207393 0.1378514 0.503 114 88 107 
0.1225811 0.1381254 0.504 119 93 112 
0.1241829 0.1381254 0.504 120 91 111 
0.1257846 0.1381254 0.504 121 90 111 
0.1276391 0.1383995 0.505 135 98 126 
0.1297559 0.1389476 0.507 146 111 138 
0.1316263 0.1392217 0.508 152 119 148 
0.1337654 0.1397698 0.5100001 160 127 156 
0.1356516 0.1400439 0.511 162 131 159 
0.1375443 0.1403179 0.512 163 133 158 
-0.06879776 0.1731066 0.628 23 33 36 
-0.0664828 0.1722797 0.625 15 25 30 
-0.06429012 0.1717284 0.623 8 18 21 
-0.03700385 0.1648372 0.598 57 52 48 
-0.03510335 0.1648372 0.598 54 46 43 
-0.03320286 0.1648372 0.598 50 42 39 
-0.03130237 0.1648372 0.598 48 39 34 
-0.02930354 0.1642859 0.596 47 38 31 
-0.02731743 0.1637346 0.594 46 37 30 
-0.02534402 0.1631833 0.592 45 36 27 
-0.02338333 0.162632 0.59 44 35 26 
-0.02143536 0.1620807 0.588 44 35 26 
-0.01950009 0.1615294 0.586 44 35 26 
-0.01754744 0.1607025 0.583 44 35 26 
-0.01558694 0.1595999 0.5790001 46 35 26 
-0.01369934 0.1590486 0.577 47 36 27 
-0.0117422 0.1573947 0.571 46 35 26 
-0.009892746 0.1568434 0.569 48 37 28 
-0.008056002 0.1562921 0.567 49 38 29 
-0.006242999 0.1560165 0.566 50 39 30 
-0.004412797 0.1549139 0.562 52 41 32 
-0.002608019 0.1538113 0.558 54 43 34 
-0.0008301621 0.1529844 0.555 55 44 35 
0.0009303087 0.1524331 0.553 57 46 39 
0.002678067 0.1518818 0.551 65 51 45 
0.004413113 0.1513305 0.549 68 54 48 
0.006135448 0.1507792 0.5470001 69 57 55 
0.007845069 0.1502279 0.545 74 62 60 
0.009559551 0.1499522 0.544 76 64 62 
0.01126768 0.1496766 0.543 80 68 66 
0.01296945 0.1494009 0.5420001 80 68 66 
0.01466486 0.1491253 0.541 83 71 69 
0.01635392 0.1488497 0.54 82 70 68 
0.01803662 0.148574 0.539 81 69 67 
0.01971296 0.1482984 0.538 80 68 66 
0.02142277 0.1482984 0.538 78 66 64 
0.02308958 0.1480227 0.537 77 65 63 
0.02475004 0.1477471 0.536 72 62 60 
0.02645349 0.1477471 0.536 69 59 57 
0.02810441 0.1474714 0.535 67 57 55 
0.02974897 0.1471958 0.534 64 54 52 
0.03138718 0.1469201 0.5330001 62 52 50 
0.03301903 0.1466445 0.532 62 52 50 
0.03464453 0.1463688 0.531 60 50 48 
0.03626367 0.1460932 0.53 60 50 48 
0.03787645 0.1458175 0.529 59 49 47 
0.03948288 0.1455419 0.528 61 53 52 
0.04100499 0.1449906 0.526 60 52 51 
0.04259553 0.1447149 0.525 61 53 52 
0.0440954 0.1441636 0.523 63 55 54 
0.04558255 0.1436124 0.521 64 56 55 
0.04696633 0.1427854 0.518 66 58 57 
0.04842488 0.1422341 0.516 69 59 59 
0.04987072 0.1416828 0.514 72 62 62 
0.05140405 0.1414072 0.513 73 63 63 
0.05282765 0.1408559 0.511 74 64 64 
0.05434509 0.1405802 0.5100001 75 65 65 
0.05585617 0.1403046 0.509 78 66 66 
0.0573609 0.1400289 0.508 78 66 66 
0.05885928 0.1397533 0.507 78 66 66 
0.06047056 0.1397533 0.507 80 68 68 
0.0619594 0.1394776 0.506 80 68 68 
0.06344188 0.139202 0.505 82 70 70 
0.064918 0.1389263 0.504 83 71 71 
0.06651976 0.1389263 0.504 84 72 72 
0.06798635 0.1386507 0.503 84 72 72 
0.06944659 0.138375 0.502 84 72 72 
0.07090047 0.1380994 0.501 86 74 74 
0.07234798 0.1378237 0.5 89 77 77 
0.07378916 0.1375481 0.499 91 79 79 
0.07537501 0.1375481 0.499 90 78 78 
0.07680666 0.1372725 0.498 91 79 79 
0.07838934 0.1372725 0.498 93 81 79 
0.07981144 0.1369968 0.497 94 79 78 
0.08139094 0.1369968 0.497 97 82 81 
0.08297045 0.1369968 0.497 97 82 81 
0.08454996 0.1369968 0.497 99 82 82 
0.08595616 0.1367212 0.496 104 84 85 
0.08753249 0.1367212 0.496 108 88 89 
0.08910882 0.1367212 0.496 109 92 92 
0.09068515 0.1367212 0.496 113 96 96 
0.09226148 0.1367212 0.496 116 99 99 
0.09383781 0.1367212 0.496 119 102 102 
0.09541413 0.1367212 0.496 120 103 103 
0.09699047 0.1367212 0.496 128 108 109 
0.09876551 0.1369968 0.497 132 112 113 
0.1005469 0.1372725 0.498 140 120 121 
0.1023347 0.1375481 0.499 146 126 127 
0.1039205 0.1375481 0.499 151 131 132 
0.1057178 0.1378237 0.5 152 135 137 
0.1073069 0.1378237 0.5 144 128 135 
0.1091137 0.1380994 0.501 134 118 127 
0.1107059 0.1380994 0.501 126 109 121 
0.1125223 0.138375 0.502 116 97 112 
0.1141177 0.138375 0.502 119 100 115 
0.1157131 0.138375 0.502 120 101 116 
0.1173085 0.138375 0.502 116 94 110 
0.1191408 0.1386507 0.503 112 88 105 
0.1207393 0.1386507 0.503 115 89 106 
0.1225811 0.1389263 0.504 119 93 112 
0.1241829 0.1389263 0.504 120 89 110 
0.1260342 0.139202 0.505 122 88 110 
0.1278919 0.1394776 0.506 136 96 123 
0.1297559 0.1397533 0.507 144 104 131 
0.1316263 0.1400289 0.508 149 109 136 
0.1335031 0.1403046 0.509 157 122 149 
0.1356516 0.1408559 0.511 159 127 153 
0.1372757 0.1408559 0.511 162 130 154 
-0.06803091 0.1721639 0.6210001 24 36 38 
-0.06563183 0.1710549 0.617 17 27 32 
-0.06429012 0.1727184 0.623 10 20 25 
-0.03681821 0.1649557 0.595 59 50 45 
-0.03504465 0.1655102 0.597 55 46 41 
-0.03314734 0.1655102 0.597 51 42 37 
-0.03119768 0.165233 0.596 50 41 36 
-0.02925438 0.1649557 0.595 47 38 31 
-0.02727144 0.1644013 0.5930001 47 38 29 
-0.02530121 0.1638468 0.591 45 36 27 
-0.02330407 0.1630151 0.588 46 37 28 
-0.02136245 0.1624606 0.586 47 36 27 
-0.01943354 0.1619061 0.5840001 46 35 26 
-0.01748724 0.1610744 0.581 47 36 27 
-0.0155331 0.1599655 0.577 47 36 27 
-0.01362811 0.1591338 0.574 50 36 28 
-0.01172164 0.1580248 0.5700001 49 35 27 
-0.00987536 0.1574703 0.568 49 38 29 
-0.008041793 0.1569159 0.566 49 38 29 
-0.006220939 0.1563614 0.564 50 39 30 
-0.004397092 0.1552525 0.56 53 42 33 
-0.002608019 0.154698 0.558 56 42 34 
-0.0008301621 0.1538663 0.555 58 44 36 
0.0009303087 0.1533118 0.553 61 47 39 
0.002678067 0.1527573 0.551 65 51 43 
0.004413113 0.1522029 0.549 69 55 49 
0.006135448 0.1516484 0.5470001 69 58 53 
0.007845069 0.1510939 0.545 74 63 58 
0.009559551 0.1508167 0.544 76 65 60 
0.01126768 0.1505394 0.543 80 69 64 
0.01296945 0.1502622 0.5420001 81 70 65 
0.01466486 0.149985 0.541 83 72 67 
0.01635392 0.1497077 0.54 82 71 66 
0.01803662 0.1494305 0.539 81 70 65 
0.01971296 0.1491533 0.538 81 70 65 
0.02142277 0.1491533 0.538 80 69 64 
0.02308958 0.148876 0.537 77 66 61 
0.02475004 0.1485988 0.536 75 64 59 
0.02645349 0.1485988 0.536 71 62 57 
0.02810441 0.1483215 0.535 69 59 57 
0.02974897 0.1480443 0.534 65 55 53 
0.03138718 0.1477671 0.5330001 64 54 52 
0.03301903 0.1474898 0.532 63 55 52 
0.03464453 0.1472126 0.531 60 52 49 
0.03626367 0.1469354 0.53 60 52 49 
0.03787645 0.1466581 0.529 59 51 48 
0.03948288 0.1463809 0.528 61 53 52 
0.04108295 0.1461037 0.527 60 52 51 
0.04267666 0.1458264 0.526 61 53 52 
0.04417972 0.145272 0.524 61 53 52 
0.04567004 0.1447175 0.522 64 56 55 
0.047057 0.1438858 0.5190001 65 57 56 
0.04851873 0.1433313 0.517 67 59 58 
0.04996775 0.1427768 0.515 70 62 61 
0.05140405 0.1422223 0.513 72 64 63 
0.05282765 0.1416679 0.511 73 65 64 
0.05434509 0.1413906 0.5100001 75 65 65 
0.05585617 0.1411134 0.509 77 65 65 
0.0573609 0.1408362 0.508 78 66 66 
0.05885928 0.1405589 0.507 78 66 66 
0.06047056 0.1405589 0.507 80 68 68 
0.0619594 0.1402817 0.506 81 69 69 
0.06344188 0.1400044 0.505 81 69 69 
0.06504681 0.1400044 0.505 82 70 70 
0.06651976 0.1397272 0.504 83 71 71 
0.06798635 0.13945 0.503 85 70 71 
0.06944659 0.1391727 0.502 84 72 72 
0.07090047 0.1388955 0.501 86 74 74 
0.07234798 0.1386183 0.5 89 77 77 
0.07378916 0.138341 0.499 91 79 79 
0.07537501 0.138341 0.499 90 78 78 
0.07680666 0.1380638 0.498 90 78 78 
0.07838934 0.1380638 0.498 92 80 78 
0.07981144 0.1377866 0.497 94 79 78 
0.08139094 0.1377866 0.497 97 82 81 
0.08297045 0.1377866 0.497 95 80 79 
0.08454996 0.1377866 0.497 99 82 82 
0.08595616 0.1375093 0.496 103 83 84 
0.08753249 0.1375093 0.496 108 88 89 
0.08910882 0.1375093 0.496 111 91 92 
0.09068515 0.1375093 0.496 112 92 93 
0.09226148 0.1375093 0.496 116 99 99 
0.09383781 0.1375093 0.496 119 102 102 
0.09541413 0.1375093 0.496 120 103 103 
0.09718601 0.1377866 0.497 126 109 109 
0.09876551 0.1377866 0.497 135 115 116 
0.1005469 0.1380638 0.498 142 122 123 
0.1023347 0.138341 0.499 146 126 127 
0.1041288 0.1386183 0.5 152 132 133 
0.1057178 0.1386183 0.5 152 135 137 
0.1075215 0.1388955 0.501 147 131 136 
0.1091137 0.1388955 0.501 135 119 128 
0.1109269 0.1391727 0.502 127 111 120 
0.1125223 0.1391727 0.502 119 100 113 
0.1141177 0.1391727 0.502 123 102 113 
0.1159436 0.13945 0.503 122 104 114 
0.1175422 0.13945 0.503 116 98 108 
0.1191408 0.13945 0.503 117 93 108 
0.1209794 0.1397272 0.504 119 93 108 
0.1225811 0.1397272 0.504 120 94 109 
0.1241829 0.1397272 0.504 119 90 106 
0.1260342 0.1400044 0.505 121 90 109 
0.1278919 0.1402817 0.506 133 97 120 
0.1297559 0.1405589 0.507 140 104 127 
0.1316263 0.1408362 0.508 147 107 134 
0.1335031 0.1411134 0.509 155 118 144 
0.1353862 0.1413906 0.5100001 160 125 150 
0.1372757 0.1416679 0.511 161 127 149 
-0.2531871 0.2693455 0.966 23 24 20 
-0.250376 0.2696243 0.9670001 30 34 29 
-0.2480701 0.2704608 0.97 29 30 26 
-0.2431515 0.2718549 0.975 42 39 36 
-0.2400529 0.2718549 0.975 41 36 32 
-0.0673736 0.1714777 0.615 26 38 42 
-0.06531271 0.1711989 0.614 21 33 37 
-0.06305178 0.1703624 0.611 12 22 29 
-0.0606099 0.1689683 0.606 4 14 19 
-0.0584903 0.1684106 0.604 0 8 11 
-0.03844894 0.1647859 0.591 60 50 48 
-0.03675633 0.1656224 0.594 58 49 44 
-0.03492725 0.1659012 0.595 55 46 41 
-0.03303629 0.1659012 0.595 53 42 37 
-0.03114533 0.1659012 0.595 50 41 34 
-0.02915604 0.1653436 0.5930001 48 39 32 
-0.02717946 0.1647859 0.591 52 41 32 
-0.02521559 0.1642283 0.589 49 38 29 
-0.02326443 0.1636706 0.587 49 38 29 
-0.02132599 0.163113 0.585 49 38 29 
-0.01936699 0.1622765 0.582 47 36 27 
-0.01742705 0.16144 0.5790001 48 37 28 
-0.01550618 0.1606035 0.576 50 36 28 
-0.01358063 0.1594882 0.572 52 38 30 
-0.01170107 0.1586517 0.569 51 37 29 
-0.009857974 0.1580941 0.567 50 39 30 
-0.008027585 0.1575364 0.565 50 39 30 
-0.006209909 0.1569788 0.563 53 42 33 
-0.004397092 0.1561423 0.56 54 43 34 
-0.002608019 0.1555847 0.558 56 42 34 
-0.0008301621 0.1547482 0.555 59 45 37 
0.0009303087 0.1541905 0.553 61 47 39 
0.002678067 0.1536329 0.551 65 51 43 
0.004413113 0.1530752 0.549 69 55 49 
0.006135448 0.1525176 0.5470001 71 57 53 
0.007845069 0.1519599 0.545 75 64 59 
0.009559551 0.1516811 0.544 74 65 60 
0.01126768 0.1514023 0.543 81 70 65 
0.01296945 0.1511235 0.5420001 82 71 66 
0.01466486 0.1508446 0.541 83 72 67 
0.01635392 0.1505658 0.54 82 71 66 
0.01803662 0.150287 0.539 82 71 66 
0.01974961 0.150287 0.539 81 70 65 
0.02142277 0.1500082 0.538 81 70 65 
0.02308958 0.1497293 0.537 78 67 62 
0.02475004 0.1494505 0.536 76 65 60 
0.02645349 0.1494505 0.536 73 62 57 
0.02810441 0.1491717 0.535 71 62 57 
0.02980468 0.1491717 0.535 68 58 56 
0.03144607 0.1488928 0.534 64 56 53 
0.0330811 0.148614 0.5330001 63 55 52 
0.03470977 0.1483352 0.532 61 53 50 
0.03633209 0.1480564 0.531 60 52 49 
0.03794805 0.1477776 0.53 60 52 49 
0.03955766 0.1474987 0.529 61 53 52 
0.0411609 0.1472199 0.528 60 52 51 
0.0427578 0.1469411 0.527 61 53 52 
0.04426403 0.1463834 0.525 61 53 52 
0.04575753 0.1458258 0.523 64 56 55 
0.04714767 0.1449893 0.52 64 56 55 
0.04861257 0.1444316 0.518 67 59 58 
0.04996775 0.1435952 0.515 68 60 59 
0.05140405 0.1430375 0.513 71 63 62 
0.05282765 0.1424799 0.511 74 64 64 
0.05434509 0.1422011 0.5100001 74 64 64 
0.05585617 0.1419222 0.509 77 65 65 
0.0573609 0.1416434 0.508 78 66 66 
0.05885928 0.1413646 0.507 78 66 66 
0.06047056 0.1413646 0.507 80 68 68 
0.0619594 0.1410857 0.506 81 69 69 
0.06356751 0.1410857 0.506 81 69 69 
0.06504681 0.1408069 0.505 82 70 70 
0.06651976 0.1405281 0.504 83 71 71 
0.06812152 0.1405281 0.504 85 70 71 
0.06958493 0.1402493 0.503 87 72 73 
0.07104199 0.1399704 0.502 88 73 74 
0.07249269 0.1396916 0.501 90 75 76 
0.07393703 0.1394128 0.5 93 78 79 
0.07537501 0.139134 0.499 89 77 77 
0.07696088 0.139134 0.499 89 77 77 
0.07838934 0.1388551 0.498 92 80 78 
0.07997202 0.1388551 0.498 92 80 78 
0.08139094 0.1385763 0.497 95 80 79 
0.08297045 0.1385763 0.497 95 80 79 
0.08454996 0.1385763 0.497 98 81 81 
0.08595616 0.1382975 0.496 102 82 83 
0.08753249 0.1382975 0.496 107 87 88 
0.08910882 0.1382975 0.496 109 89 90 
0.09068515 0.1382975 0.496 111 91 92 
0.09226148 0.1382975 0.496 117 97 98 
0.09383781 0.1382975 0.496 121 101 102 
0.0956065 0.1385763 0.497 122 102 103 
0.09718601 0.1385763 0.497 128 108 109 
0.09896424 0.1388551 0.498 136 116 117 
0.1005469 0.1388551 0.498 143 123 124 
0.1023347 0.139134 0.499 147 127 128 
0.1041288 0.1394128 0.5 152 132 133 
0.1059293 0.1396916 0.501 152 135 137 
0.1075215 0.1396916 0.501 148 132 137 
0.1093315 0.1399704 0.502 136 120 129 
0.1109269 0.1399704 0.502 128 110 120 
0.1125223 0.1399704 0.502 121 103 113 
0.114345 0.1402493 0.503 123 105 113 
0.1159436 0.1402493 0.503 123 105 113 
0.1175422 0.1402493 0.503 120 102 112 
0.1191408 0.1402493 0.503 118 97 108 
0.1209794 0.1405281 0.504 120 97 109 
0.1225811 0.1405281 0.504 122 97 109 
0.1241829 0.1405281 0.504 123 94 110 
0.1260342 0.1408069 0.505 129 100 116 
0.1278919 0.1410857 0.506 134 100 118 
0.1297559 0.1413646 0.507 140 106 126 
0.1316263 0.1416434 0.508 147 111 132 
0.1335031 0.1419222 0.509 155 119 142 
0.1353862 0.1422011 0.5100001 160 126 148 
0.137007 0.1422011 0.5100001 158 127 146 
0.1402487 0.1422011 0.5100001 10 7 26 
-0.2765973 0.2697589 0.9620001 8 12 7 
-0.27354 0.2697589 0.9620001 7 11 6 
-0.2704827 0.2697589 0.9620001 7 11 6 
-0.2591376 0.2675155 0.9540001 12 13 9 
-0.2549308 0.2694784 0.961 27 33 31 
-0.252663 0.2703197 0.964 22 28 28 
-0.2498582 0.2706001 0.965 32 38 38 
-0.2473029 0.271161 0.9670001 29 32 31 
-0.2449873 0.2720022 0.97 33 33 35 
-0.2424034 0.272563 0.9720001 40 39 41 
-0.2400529 0.2734042 0.975 37 36 36 
-0.2371973 0.2736847 0.9760001 37 37 33 
-0.0673736 0.172455 0.615 30 42 48 
-0.06531271 0.1721746 0.614 24 36 42 
-0.06253581 0.1699313 0.606 11 23 29 
-0.06030985 0.16909 0.603 58 72 78 
-0.05810295 0.1682488 0.6 78 95 100 
-0.0561961 0.1682488 0.6 38 56 63 
-0.05428925 0.1682488 0.6 49 66 71 
-0.0523824 0.1682488 0.6 63 75 81 
-0.05047555 0.1682488 0.6 57 64 70 
-0.04213402 0.1654446 0.59 58 53 51 
-0.04019072 0.1651642 0.589 59 49 47 
-0.03838388 0.1654446 0.59 59 50 45 
-0.03657069 0.165725 0.591 60 49 44 
-0.03480985 0.1662859 0.5930001 57 46 41 
-0.03292525 0.1662859 0.5930001 53 42 35 
-0.03104065 0.1662859 0.5930001 53 42 35 
-0.02910687 0.1660054 0.592 50 41 32 
-0.02713347 0.1654446 0.59 53 42 33 
-0.02517278 0.1648838 0.588 50 39 30 
-0.02318517 0.1640426 0.585 50 39 30 
-0.02125308 0.1634817 0.583 50 39 30 
-0.01933371 0.1629209 0.581 48 37 28 
-0.01736685 0.1617992 0.577 49 38 29 
-0.01545233 0.160958 0.574 51 37 29 
-0.01355689 0.1601167 0.571 55 39 32 
-0.01170107 0.1595559 0.569 52 38 30 
-0.009857974 0.1589951 0.567 52 41 32 
-0.008013377 0.1581538 0.564 52 41 32 
-0.006198879 0.157593 0.562 54 43 34 
-0.004397092 0.1570322 0.56 55 44 35 
-0.002608019 0.1564714 0.558 57 43 35 
-0.0008301621 0.1556301 0.555 61 47 39 
0.0009303087 0.1550693 0.553 62 48 40 
0.002678067 0.1545085 0.551 65 51 43 
0.004405075 0.1536672 0.548 69 55 49 
0.006124231 0.1531064 0.546 71 57 51 
0.007845069 0.152826 0.545 75 64 59 
0.009559551 0.1525456 0.544 74 65 60 
0.01126768 0.1522651 0.543 81 70 65 
0.01296945 0.1519847 0.5420001 82 71 66 
0.01466486 0.1517043 0.541 83 72 67 
0.01635392 0.1514239 0.54 81 72 67 
0.01803662 0.1511435 0.539 81 72 67 
0.01974961 0.1511435 0.539 81 70 65 
0.02142277 0.1508631 0.538 81 70 65 
0.02308958 0.1505826 0.537 81 70 65 
0.02479621 0.1505826 0.537 77 66 61 
0.02645349 0.1503022 0.536 74 63 58 
0.02815694 0.1503022 0.536 74 63 58 
0.02980468 0.1500218 0.535 71 61 59 
0.03144607 0.1497414 0.534 67 59 56 
0.0330811 0.149461 0.5330001 64 56 53 
0.03470977 0.1491806 0.532 63 55 52 
0.03633209 0.1489002 0.531 61 53 50 
0.03794805 0.1486198 0.53 60 52 49 
0.03955766 0.1483393 0.529 60 52 51 
0.0411609 0.1480589 0.528 60 52 51 
0.0427578 0.1477785 0.527 60 52 51 
0.04434834 0.1474981 0.526 61 53 52 
0.04584502 0.1469373 0.524 64 56 55 
0.04723834 0.146096 0.521 63 55 54 
0.04870642 0.1455352 0.5190001 66 58 57 
0.05006477 0.144694 0.516 67 59 58 
0.05150425 0.1441331 0.514 71 63 62 
0.05293103 0.1435723 0.512 73 65 64 
0.05434509 0.1430115 0.5100001 74 64 64 
0.05585617 0.142731 0.509 76 64 64 
0.0573609 0.1424506 0.508 78 66 66 
0.05897537 0.1424506 0.508 78 66 66 
0.06047056 0.1421702 0.507 78 66 66 
0.0619594 0.1418898 0.506 80 68 68 
0.06356751 0.1418898 0.506 81 69 69 
0.06504681 0.1416094 0.505 81 69 69 
0.06665175 0.1416094 0.505 82 70 70 
0.06812152 0.141329 0.504 85 70 71 
0.06958493 0.1410486 0.503 86 71 72 
0.07104199 0.1407681 0.502 88 73 74 
0.07249269 0.1404877 0.501 88 73 74 
0.07393703 0.1402073 0.5 92 77 78 
0.07537501 0.1399269 0.499 91 76 77 
0.07696088 0.1399269 0.499 89 77 75 
0.07838934 0.1396465 0.498 91 79 77 
0.07997202 0.1396465 0.498 92 80 78 
0.0815547 0.1396465 0.498 94 79 78 
0.08297045 0.1393661 0.497 95 80 79 
0.08454996 0.1393661 0.497 96 79 79 
0.08612946 0.1393661 0.497 102 82 83 
0.08753249 0.1390857 0.496 105 85 86 
0.08910882 0.1390857 0.496 107 87 88 
0.09068515 0.1390857 0.496 111 91 92 
0.09244748 0.1393661 0.497 117 97 100 
0.094027 0.1393661 0.497 119 99 100 
0.0956065 0.1393661 0.497 123 103 104 
0.09718601 0.1393661 0.497 128 108 109 
0.09896424 0.1396465 0.498 136 116 117 
0.1007488 0.1399269 0.499 144 124 125 
0.1023347 0.1399269 0.499 150 130 131 
0.1043371 0.1404877 0.501 153 133 134 
0.1059293 0.1404877 0.501 152 135 137 
0.1077361 0.1407681 0.502 148 132 137 
0.1093315 0.1407681 0.502 136 120 127 
0.1109269 0.1407681 0.502 129 111 119 
0.1127465 0.1410486 0.503 124 106 114 
0.114345 0.1410486 0.503 126 108 114 
0.1159436 0.1410486 0.503 124 106 112 
0.1175422 0.1410486 0.503 122 104 112 
0.1193776 0.141329 0.504 119 98 107 
0.1209794 0.141329 0.504 123 100 110 
0.1225811 0.141329 0.504 126 101 111 
0.1244293 0.1416094 0.505 127 102 114 
0.1260342 0.1416094 0.505 135 107 120 
0.1278919 0.1418898 0.506 137 109 122 
0.1297559 0.1421702 0.507 139 109 123 
0.1316263 0.1424506 0.508 148 114 132 
0.1335031 0.142731 0.509 155 121 139 
0.1353862 0.1430115 0.5100001 159 125 143 
0.137007 0.1430115 0.5100001 157 128 146 
0.1386278 0.1430115 0.5100001 92 72 94 
0.1402487 0.1430115 0.5100001 8 9 24 
-0.2784918 0.2701595 0.9580001 6 14 11 
-0.2757347 0.2704415 0.9590001 6 13 7 
-0.2726869 0.2704415 0.9590001 5 12 6 
-0.2690768 0.2698775 0.957 8 11 10 
-0.2652014 0.2690315 0.9540001 9 12 11 
-0.2616199 0.2684675 0.952 13 19 17 
-0.2585944 0.2684675 0.952 25 31 29 
-0.2558373 0.2687495 0.9530001 27 33 33 
-0.2538697 0.2698775 0.957 30 36 38 
-0.2518767 0.2710055 0.961 28 36 37 
-0.2493404 0.2715695 0.9630001 27 35 36 
-0.2465356 0.2718515 0.964 29 35 37 
-0.2447348 0.2732615 0.969 31 34 37 
-0.2419046 0.2735435 0.97 32 35 38 
-0.2395605 0.2743896 0.973 35 38 39 
-0.2371973 0.2752356 0.9760001 33 33 35 
-0.2340955 0.2752356 0.9760001 38 38 40 
-0.06660675 0.1714582 0.608 42 55 64 
-0.06446172 0.1708942 0.606 54 67 76 
-0.06222623 0.1700482 0.603 77 90 99 
-0.06010981 0.1694842 0.601 77 90 99 
-0.05800611 0.1689202 0.599 81 99 106 
-0.05600878 0.1686382 0.598 69 87 94 
-0.05410829 0.1686382 0.598 63 75 79 
-0.0522951 0.1689202 0.599 63 70 74 
-0.0503073 0.1686382 0.598 60 63 66 
-0.04824491 0.1680742 0.596 59 59 61 
-0.04611747 0.1672282 0.5930001 60 59 59 
-0.04400909 0.1663822 0.59 60 57 54 
-0.0420626 0.1661002 0.589 58 53 49 
-0.04012248 0.1658181 0.588 59 50 45 
-0.03831883 0.1661002 0.589 61 50 45 
-0.03650881 0.1663822 0.59 60 49 44 
-0.03469244 0.1666642 0.591 59 48 43 
-0.03286972 0.1669462 0.592 55 44 37 
-0.03093595 0.1666642 0.591 54 43 34 
-0.02900854 0.1663822 0.59 53 42 33 
-0.02704149 0.1658181 0.588 57 43 35 
-0.02508716 0.1652541 0.586 52 41 32 
-0.02314554 0.1646901 0.5840001 52 41 32 
-0.02121663 0.1641261 0.582 52 41 32 
-0.01926716 0.1632801 0.5790001 49 38 29 
-0.01733675 0.1624341 0.576 50 39 30 
-0.01542541 0.1615881 0.573 54 40 32 
-0.01353315 0.1607421 0.5700001 56 40 33 
-0.01168051 0.1601781 0.568 55 41 33 
-0.009840588 0.1596141 0.566 52 41 32 
-0.008013377 0.1590501 0.564 53 42 33 
-0.006198879 0.1584861 0.562 54 43 34 
-0.004397092 0.157922 0.56 57 43 35 
-0.002608019 0.157358 0.558 58 44 36 
-0.000831658 0.156794 0.5560001 61 47 39 
0.0009303087 0.155948 0.553 63 49 41 
0.002678067 0.155384 0.551 65 51 43 
0.004405075 0.154538 0.548 69 55 49 
0.006124231 0.153974 0.546 72 58 52 
0.007830675 0.15341 0.544 75 64 59 
0.009541978 0.153128 0.543 77 66 61 
0.01126768 0.153128 0.543 81 70 65 
0.01296945 0.152846 0.5420001 82 71 66 
0.01466486 0.152564 0.541 83 72 67 
0.01635392 0.152282 0.54 82 73 68 
0.01807008 0.152282 0.54 81 72 67 
0.01974961 0.152 0.539 82 71 66 
0.02142277 0.151718 0.538 81 70 65 
0.02313258 0.151718 0.538 82 71 66 
0.02479621 0.151436 0.537 80 69 64 
0.02645349 0.151154 0.536 75 64 59 
0.02815694 0.151154 0.536 75 64 59 
0.02980468 0.150872 0.535 72 62 60 
0.03150496 0.150872 0.535 67 59 56 
0.03314317 0.15059 0.534 65 57 54 
0.03477502 0.150308 0.5330001 63 55 52 
0.03640051 0.1500259 0.532 61 53 50 
0.03801965 0.1497439 0.531 60 52 51 
0.03963244 0.1494619 0.53 60 52 51 
0.04123886 0.1491799 0.529 60 52 51 
0.04283893 0.1488979 0.528 61 53 52 
0.04434834 0.1483339 0.526 61 53 52 
0.04593252 0.1480519 0.525 63 55 54 
0.047329 0.1472059 0.522 61 53 52 
0.04870642 0.1463599 0.5190001 66 58 57 
0.0501618 0.1457959 0.517 66 57 60 
0.05160446 0.1452319 0.515 70 62 61 
0.05293103 0.1443859 0.512 72 64 63 
0.05445165 0.1441039 0.511 72 64 63 
0.05596592 0.1438219 0.5100001 74 64 64 
0.05747382 0.1435399 0.509 78 66 66 
