ply
format ascii 1.0
element vertex 1280
property float32 x
property float32 y
property float32 z
property uchar red
property uchar green
property uchar blue
end_header
0.09736131 0.1816076 0.775 57 43 35 
0.09956671 0.181139 0.7730001 56 42 34 
0.1018914 0.1809046 0.772 58 44 36 
0.1042097 0.1806703 0.771 57 46 39 
0.1065217 0.180436 0.77 61 50 43 
0.1085442 0.179733 0.767 66 55 48 
0.110403 0.1787956 0.763 68 54 50 
0.1122364 0.1778583 0.7590001 72 58 54 
0.1141954 0.1771553 0.756 75 61 57 
0.1161354 0.1764523 0.753 73 59 55 
0.118371 0.176218 0.752 76 60 57 
0.120761 0.176218 0.752 77 61 58 
0.1229871 0.1759837 0.751 75 56 52 
0.1252069 0.1757493 0.7500001 74 55 51 
0.1274204 0.175515 0.749 72 53 49 
0.1296275 0.1752806 0.748 68 49 45 
0.1316517 0.174812 0.7460001 66 47 41 
0.1334836 0.174109 0.743 64 45 39 
0.1351136 0.1731717 0.739 60 41 35 
0.1369041 0.1724687 0.7360001 59 43 38 
0.1386756 0.1717657 0.733 58 44 38 
0.1404281 0.1710627 0.73 56 45 38 
0.1421614 0.1703597 0.7270001 56 45 38 
0.1438757 0.1696567 0.724 59 48 41 
0.1455709 0.1689537 0.721 59 48 43 
0.147042 0.1680163 0.717 61 50 45 
0.1486959 0.1673134 0.714 61 50 45 
0.1503308 0.1666103 0.711 64 50 46 
0.151732 0.165673 0.707 64 49 48 
0.1533255 0.16497 0.7040001 66 51 50 
0.1548999 0.164267 0.701 68 53 52 
0.1566795 0.1637984 0.6990001 68 53 52 
0.1584463 0.1633297 0.697 69 55 51 
0.1599699 0.1626267 0.694 69 55 51 
0.1614745 0.1619237 0.691 72 56 53 
0.1631968 0.161455 0.689 74 58 55 
0.1649064 0.1609864 0.687 78 62 59 
0.1666033 0.1605177 0.6850001 80 64 59 
0.1685339 0.1602834 0.684 85 66 62 
0.1704582 0.1600491 0.683 87 68 64 
0.172376 0.1598147 0.682 91 70 67 
0.1745435 0.1598147 0.682 94 71 68 
0.1761927 0.159346 0.68 98 75 70 
0.1780915 0.1591117 0.679 104 81 76 
0.179984 0.1588774 0.678 108 82 78 
0.1818701 0.1586431 0.677 114 88 84 
0.1837498 0.1584087 0.6760001 116 90 86 
0.1856232 0.1581744 0.675 110 87 82 
0.1877684 0.1581744 0.675 106 83 78 
0.1899136 0.1581744 0.675 104 81 76 
0.1920588 0.1581744 0.675 105 82 77 
0.194204 0.1581744 0.675 104 81 76 
0.1966401 0.1584087 0.6760001 106 83 78 
0.1990826 0.1586431 0.677 110 87 82 
0.2015314 0.1588774 0.678 111 88 83 
0.2036861 0.1588774 0.678 112 89 84 
0.2058409 0.1588774 0.678 115 89 87 
0.2083024 0.1591117 0.679 118 90 91 
0.2104603 0.1591117 0.679 129 92 99 
0.2129313 0.159346 0.68 138 99 106 
0.2150924 0.159346 0.68 146 107 116 
0.217573 0.1595804 0.6810001 156 117 126 
0.22006 0.1598147 0.682 160 120 133 
0.2225533 0.1600491 0.683 164 122 138 
0.2250529 0.1602834 0.684 160 118 136 
0.2275589 0.1605177 0.6850001 154 121 136 
0.2297359 0.1605177 0.6850001 58 46 72 
0.03026563 0.1948711 0.826 38 58 80 
0.03293054 0.1951071 0.827 66 85 103 
0.03564481 0.1955789 0.8290001 78 95 109 
0.03837179 0.1960507 0.831 79 89 103 
0.04106213 0.1962867 0.832 84 85 100 
0.04381136 0.1967585 0.8340001 36 31 43 
0.04646188 0.1967585 0.8340001 44 38 44 
0.0491124 0.1967585 0.8340001 57 49 48 
0.05157672 0.1960507 0.831 60 52 49 
0.05395673 0.1951071 0.827 60 52 49 
0.05624289 0.1939274 0.822 59 51 48 
0.05856888 0.1929838 0.818 61 52 47 
0.06079466 0.1918042 0.813 64 53 48 
0.06314457 0.1910964 0.8100001 64 50 46 
0.06547542 0.1903886 0.807 64 50 46 
0.0678715 0.1899168 0.8050001 65 49 44 
0.07025488 0.1894449 0.803 62 48 42 
0.07271621 0.189209 0.802 62 48 42 
0.07507733 0.1887372 0.8 64 50 44 
0.07752278 0.1885013 0.799 63 49 43 
0.07996186 0.1882653 0.798 64 50 44 
0.08218782 0.1875576 0.795 65 51 43 
0.08450129 0.1870857 0.793 63 49 41 
0.0866923 0.186378 0.79 60 44 37 
0.08886424 0.1856702 0.7870001 58 42 35 
0.09090102 0.1847265 0.7830001 58 42 35 
0.09303164 0.1840187 0.78 57 43 35 
0.09514319 0.183311 0.777 58 44 36 
0.09736131 0.1828391 0.775 58 44 36 
0.09956671 0.1823673 0.7730001 57 43 35 
0.1020234 0.1823673 0.7730001 59 45 37 
0.1042097 0.1818954 0.771 59 48 39 
0.1065217 0.1816595 0.77 62 51 44 
0.1085442 0.1809518 0.767 67 56 49 
0.110403 0.1800081 0.763 69 55 51 
0.1122364 0.1790644 0.7590001 72 58 54 
0.1140444 0.1781207 0.7550001 75 61 57 
0.1161354 0.1776489 0.753 75 61 57 
0.118371 0.1774129 0.752 77 61 58 
0.1206004 0.177177 0.751 78 62 59 
0.1228234 0.1769411 0.7500001 74 58 55 
0.12504 0.1767052 0.749 74 55 51 
0.1274204 0.1767052 0.749 73 54 50 
0.1294542 0.1762333 0.747 69 50 46 
0.1316517 0.1759974 0.7460001 67 48 44 
0.1334836 0.1752896 0.743 64 45 41 
0.1352964 0.1745819 0.74 61 42 38 
0.1370901 0.1738741 0.737 59 43 38 
0.139054 0.1734023 0.735 59 43 38 
0.1408128 0.1726945 0.7320001 59 45 39 
0.1425525 0.1719867 0.729 56 45 38 
0.1442732 0.171279 0.726 57 46 39 
0.1457729 0.1703353 0.7220001 59 48 43 
0.1474522 0.1696275 0.719 60 49 44 
0.1489042 0.1686839 0.715 60 49 44 
0.1505422 0.1679761 0.712 64 50 46 
0.1519466 0.1670324 0.708 64 49 48 
0.1537611 0.1665606 0.706 66 51 50 
0.1553419 0.1658528 0.703 68 53 52 
0.1569036 0.165145 0.7 66 51 50 
0.1586736 0.1646732 0.698 69 55 51 
0.1599699 0.1637295 0.694 68 54 50 
0.1617081 0.1632577 0.692 72 56 53 
0.1631968 0.1625499 0.689 74 58 55 
0.1649064 0.1620781 0.687 77 61 58 
0.1668465 0.1618421 0.686 80 64 59 
0.1687803 0.1616062 0.6850001 81 65 58 
0.1707077 0.1613703 0.684 87 68 62 
0.1726288 0.1611344 0.683 91 70 65 
0.1745435 0.1608984 0.682 94 71 66 
0.1764518 0.1606625 0.6810001 98 75 70 
0.1783538 0.1604266 0.68 103 80 75 
0.179984 0.1599548 0.678 105 82 77 
0.1818701 0.1597188 0.677 110 84 80 
0.1840216 0.1597188 0.677 112 89 84 
0.1858982 0.1594829 0.6760001 107 84 79 
0.1877684 0.159247 0.675 106 83 78 
0.1899136 0.159247 0.675 105 82 77 
0.1923434 0.1594829 0.6760001 105 82 77 
0.1944917 0.1594829 0.6760001 106 83 78 
0.196931 0.1597188 0.677 107 84 79 
0.1990826 0.1597188 0.677 111 88 83 
0.2015314 0.1599548 0.678 112 89 84 
0.2036861 0.1599548 0.678 116 90 86 
0.2061445 0.1601907 0.679 117 91 87 
0.2083024 0.1601907 0.679 121 95 93 
0.2107702 0.1604266 0.68 126 95 97 
0.2129313 0.1604266 0.68 129 93 97 
0.2154088 0.1606625 0.6810001 134 98 102 
0.2178925 0.1608984 0.682 140 103 110 
0.2203826 0.1611344 0.683 150 113 122 
0.2228791 0.1613703 0.684 160 120 133 
0.225382 0.1616062 0.6850001 160 120 133 
0.2275589 0.1616062 0.6850001 159 131 144 
0.2297359 0.1616062 0.6850001 30 24 55 
0.2322515 0.1618421 0.686 9 19 49 
0.02750668 0.1952336 0.822 32 58 76 
0.0301557 0.1954712 0.823 46 62 83 
0.0328509 0.1959462 0.825 84 96 114 
0.03555882 0.1964212 0.827 86 98 114 
0.03827944 0.1968962 0.8290001 81 89 104 
0.04101278 0.1973712 0.831 70 67 81 
0.04365376 0.1973712 0.831 42 35 46 
0.04629475 0.1973712 0.831 53 44 47 
0.04887685 0.1971337 0.83 59 51 48 
0.05132846 0.1964212 0.827 64 54 52 
0.053761 0.1957087 0.8240001 62 53 48 
0.05610605 0.1947586 0.8200001 61 52 47 
0.05842568 0.1938086 0.816 61 52 47 
0.06071988 0.1928585 0.812 66 55 48 
0.06298866 0.1919085 0.808 65 51 45 
0.06539428 0.1914335 0.8060001 65 51 45 
0.06770288 0.1907209 0.803 64 50 44 
0.07016739 0.1904834 0.802 63 49 43 
0.07253487 0.1900084 0.8 63 49 43 
0.07498349 0.1897709 0.799 65 51 45 
0.07732873 0.1892959 0.7970001 64 50 44 
0.07966125 0.1888209 0.795 65 51 43 
0.08198107 0.1883458 0.793 65 51 43 
0.08428816 0.1878708 0.791 63 49 41 
0.08647282 0.1871583 0.788 59 45 37 
0.0886384 0.1864458 0.785 58 42 35 
0.09078492 0.1857332 0.7820001 58 42 35 
0.09291237 0.1850207 0.779 59 45 37 
0.09514319 0.1845457 0.777 59 45 37 
0.09736131 0.1840706 0.775 61 47 39 
0.09969551 0.1838331 0.774 58 44 36 
0.1020234 0.1835956 0.7730001 61 47 39 
0.1043449 0.1833581 0.772 62 48 40 
0.1063833 0.1826456 0.7690001 65 51 45 
0.1084027 0.181933 0.766 70 56 50 
0.1102583 0.180983 0.762 71 57 53 
0.1120885 0.180033 0.758 73 59 55 
0.1140444 0.1793204 0.7550001 75 61 57 
0.1161354 0.1788454 0.753 76 62 58 
0.118371 0.1786079 0.752 77 61 58 
0.1206004 0.1783704 0.751 79 63 60 
0.1228234 0.1781329 0.7500001 77 61 58 
0.12504 0.1778954 0.749 74 55 51 
0.1272502 0.1776579 0.748 73 54 50 
0.1294542 0.1774203 0.747 71 52 48 
0.1316517 0.1771829 0.7460001 69 48 45 
0.1336632 0.1767078 0.744 65 44 41 
0.1354792 0.1759953 0.7410001 62 43 39 
0.1372761 0.1752828 0.738 60 44 39 
0.1392432 0.1748077 0.7360001 59 43 38 
0.1410052 0.1740952 0.733 60 44 39 
0.1427481 0.1733827 0.73 59 45 39 
0.1444719 0.1726702 0.7270001 57 46 39 
0.1461767 0.1719576 0.724 59 48 43 
0.1476573 0.1710076 0.72 60 49 44 
0.1491125 0.1700575 0.716 63 49 45 
0.1507537 0.169345 0.7130001 64 50 46 
0.1523758 0.1686325 0.71 64 49 48 
0.1539788 0.1679199 0.707 66 51 50 
0.1555628 0.1672074 0.7040001 66 51 50 
0.1571278 0.1664949 0.701 66 51 50 
0.1586736 0.1657823 0.698 69 54 53 
0.1602004 0.1650698 0.6950001 68 54 50 
0.1617081 0.1643573 0.692 71 55 52 
0.1634337 0.1638823 0.6900001 73 57 54 
0.1651464 0.1634072 0.688 77 61 58 
0.1670898 0.1631697 0.687 79 63 58 
0.1687803 0.1626947 0.6850001 80 64 57 
0.1709573 0.1626947 0.6850001 86 67 61 
0.1728815 0.1624572 0.684 91 70 65 
0.1745435 0.1619822 0.682 92 71 66 
0.1767109 0.1619822 0.682 98 75 70 
0.1783538 0.1615071 0.68 103 80 75 
0.1802494 0.1612696 0.679 104 81 76 
0.1821387 0.1610321 0.678 108 82 78 
0.1840216 0.1607946 0.677 110 87 82 
0.1861732 0.1607946 0.677 107 84 79 
0.1880466 0.1605571 0.6760001 106 83 78 
0.190195 0.1605571 0.6760001 108 82 78 
0.1923434 0.1605571 0.6760001 109 83 79 
0.1947795 0.1607946 0.677 109 83 79 
0.196931 0.1607946 0.677 110 84 80 
0.1993766 0.1610321 0.678 113 87 83 
0.2018286 0.1612696 0.679 114 88 84 
0.2039865 0.1612696 0.679 116 90 86 
0.2061445 0.1612696 0.679 120 94 92 
0.2086091 0.1615071 0.68 121 95 93 
0.2107702 0.1615071 0.68 122 94 93 
0.2132445 0.1617447 0.6810001 122 91 91 
0.2157251 0.1619822 0.682 122 91 91 
0.218212 0.1622197 0.683 126 93 96 
0.2207053 0.1624572 0.684 137 103 111 
0.223205 0.1626947 0.6850001 152 118 126 
0.225382 0.1626947 0.6850001 160 126 134 
0.2275589 0.1626947 0.6850001 150 131 148 
0.2297359 0.1626947 0.6850001 26 27 60 
0.2319129 0.1626947 0.6850001 7 17 45 
0.02740629 0.1958226 0.8190001 37 63 81 
0.03008242 0.1963007 0.821 74 86 104 
0.03273144 0.1965398 0.822 93 103 119 
0.03542982 0.197018 0.8240001 88 100 116 
0.03814092 0.1974962 0.826 84 89 105 
0.04076601 0.1974962 0.826 42 34 50 
0.04344364 0.1977353 0.827 48 42 48 
0.04607191 0.1977353 0.827 57 52 50 
0.04870018 0.1977353 0.827 63 55 52 
0.05114226 0.197018 0.8240001 64 54 52 
0.05363051 0.1965398 0.822 64 55 50 
0.05596921 0.1955834 0.818 65 56 51 
0.05821088 0.1943879 0.813 64 55 50 
0.06049555 0.1934315 0.809 67 56 49 
0.06283275 0.1927142 0.8060001 66 55 48 
0.06515088 0.1919969 0.803 64 53 46 
0.06761857 0.1917578 0.802 62 51 44 
0.0699924 0.1912796 0.8 64 50 44 
0.07235353 0.1908014 0.798 64 50 44 
0.0747958 0.1905624 0.7970001 67 51 46 
0.07713468 0.1900841 0.795 65 51 45 
0.07956105 0.189845 0.794 65 51 43 
0.0817743 0.1891277 0.791 65 51 43 
0.08407505 0.1886496 0.789 64 48 41 
0.08625335 0.1879323 0.786 60 44 37 
0.08841258 0.187215 0.7830001 59 43 36 
0.09066882 0.1867367 0.781 58 44 36 
0.09291237 0.1862586 0.779 61 47 39 
0.09514319 0.1857803 0.777 61 47 39 
0.09736131 0.1853022 0.775 62 48 40 
0.09969551 0.1850631 0.774 59 45 37 
0.1020234 0.184824 0.7730001 62 48 40 
0.1042097 0.1843458 0.771 64 50 42 
0.1063833 0.1838676 0.7690001 66 52 44 
0.1084027 0.1831503 0.766 70 56 50 
0.1102583 0.1821939 0.762 72 58 52 
0.1120885 0.1812375 0.758 73 59 55 
0.1140444 0.1805202 0.7550001 75 61 57 
0.1161354 0.180042 0.753 77 63 59 
0.118371 0.1798029 0.752 76 62 58 
0.1206004 0.1795638 0.751 79 63 60 
0.1226596 0.1790856 0.749 79 63 60 
0.124873 0.1788465 0.748 74 58 55 
0.1272502 0.1788465 0.748 73 54 50 
0.1294542 0.1786074 0.747 74 53 50 
0.1316517 0.1783683 0.7460001 72 51 48 
0.1336632 0.1778901 0.744 66 45 42 
0.1354792 0.1771728 0.7410001 64 45 41 
0.1374622 0.1766946 0.739 64 45 41 
0.1394324 0.1762164 0.737 60 44 39 
0.1411975 0.1754991 0.734 60 44 39 
0.1429436 0.1747818 0.731 60 44 39 
0.1446706 0.1740645 0.728 59 45 39 
0.1463786 0.1733472 0.725 60 49 44 
0.1478623 0.1723908 0.721 60 49 44 
0.1493207 0.1714344 0.717 63 49 45 
0.1509651 0.1707171 0.714 64 50 46 
0.1525904 0.1699998 0.711 64 50 46 
0.1541966 0.1692825 0.708 66 52 48 
0.1557838 0.1685652 0.705 66 52 48 
0.1573519 0.1678479 0.702 65 51 47 
0.158901 0.1671306 0.6990001 68 54 50 
0.1604309 0.1664133 0.696 68 54 50 
0.1619418 0.165696 0.693 70 54 51 
0.1636705 0.1652178 0.691 73 57 54 
0.1651464 0.1645005 0.688 77 61 58 
0.1670898 0.1642614 0.687 79 63 58 
0.1690267 0.1640223 0.686 80 64 57 
0.1709573 0.1637832 0.6850001 86 67 61 
0.1728815 0.1635441 0.684 90 69 64 
0.1747994 0.163305 0.683 92 71 66 
0.1767109 0.1630659 0.682 98 75 70 
0.1786161 0.1628268 0.6810001 103 80 75 
0.1805149 0.1625877 0.68 106 81 74 
0.1824074 0.1623486 0.679 108 83 76 
0.1842934 0.1621095 0.678 110 85 78 
0.1861732 0.1618704 0.677 107 85 77 
0.1883248 0.1618704 0.677 108 83 76 
0.1904763 0.1618704 0.677 108 83 76 
0.1926279 0.1618704 0.677 112 87 80 
0.1947795 0.1618704 0.677 110 85 78 
0.1972219 0.1621095 0.678 114 87 81 
0.1996707 0.1623486 0.679 115 87 84 
0.2018286 0.1623486 0.679 117 89 86 
0.2042869 0.1625877 0.68 117 89 86 
0.206448 0.1625877 0.68 120 94 92 
0.2086091 0.1625877 0.68 121 95 93 
0.2110802 0.1628268 0.6810001 119 93 91 
0.2135576 0.1630659 0.682 117 91 89 
0.2160414 0.163305 0.683 117 89 88 
0.2185315 0.1635441 0.684 123 92 92 
0.221028 0.1637832 0.6850001 134 102 107 
0.223205 0.1637832 0.6850001 150 118 123 
0.2278911 0.1640223 0.686 80 66 89 
0.2297359 0.1637832 0.6850001 19 25 56 
0.2319129 0.1637832 0.6850001 3 13 39 
0.02727244 0.1961612 0.8150001 42 65 82 
0.0299725 0.1968833 0.818 88 98 116 
0.03261199 0.197124 0.8190001 97 107 123 
0.03530083 0.1976053 0.821 92 102 118 
0.03795621 0.197846 0.822 88 89 104 
0.0406673 0.1983274 0.8240001 48 41 54 
0.04328604 0.1983274 0.8240001 57 51 53 
0.04596049 0.1985681 0.825 59 54 52 
0.04852352 0.1983274 0.8240001 65 57 54 
0.05101813 0.197846 0.822 65 57 54 
0.05343478 0.197124 0.8190001 66 57 52 
0.05576394 0.1961612 0.8150001 66 57 52 
0.05813928 0.1954391 0.812 67 58 53 
0.06034599 0.1942357 0.807 69 58 51 
0.06275479 0.1937543 0.8050001 68 57 50 
0.06506974 0.1930322 0.802 66 55 48 
0.06753425 0.1927916 0.8010001 63 52 45 
0.06990491 0.1923102 0.799 64 50 44 
0.07217219 0.1915881 0.7960001 66 50 45 
0.0746081 0.1913474 0.795 68 54 48 
0.07703765 0.1911067 0.794 66 52 46 
0.07926044 0.1903847 0.791 66 52 44 
0.08156754 0.1899033 0.789 65 51 43 
0.08386193 0.1894219 0.7870001 63 49 41 
0.08603387 0.1886999 0.784 59 45 37 
0.08829966 0.1882185 0.7820001 58 44 36 
0.09055273 0.1877371 0.78 59 45 37 
0.0927931 0.1872557 0.7780001 62 48 40 
0.09514319 0.187015 0.777 63 49 41 
0.09748694 0.1867743 0.776 63 49 41 
0.09982432 0.1865337 0.775 61 47 39 
0.1020234 0.1860523 0.7730001 62 48 40 
0.1042097 0.1855709 0.771 65 51 43 
0.1063833 0.1850895 0.7690001 69 55 49 
0.1084027 0.1843675 0.766 71 57 51 
0.1102583 0.1834047 0.762 73 59 53 
0.1122364 0.1826826 0.7590001 75 61 57 
0.1141954 0.1819606 0.756 76 62 58 
0.1162896 0.1814792 0.754 77 63 59 
0.118371 0.1809978 0.752 77 63 59 
0.1206004 0.1807571 0.751 78 64 60 
0.1226596 0.1802758 0.749 79 63 60 
0.124873 0.1800351 0.748 78 62 59 
0.1272502 0.1800351 0.748 75 56 52 
0.1294542 0.1797944 0.747 75 54 51 
0.1314752 0.179313 0.7450001 76 53 50 
0.1336632 0.1790723 0.744 68 47 44 
0.1356621 0.1785909 0.742 64 45 41 
0.1374622 0.1778689 0.739 64 45 41 
0.1394324 0.1773875 0.737 64 45 41 
0.1413899 0.1769061 0.735 62 43 39 
0.1431392 0.1761841 0.7320001 64 45 41 
0.1448693 0.175462 0.729 60 44 39 
0.1465805 0.1747399 0.726 62 48 42 
0.1480674 0.1737772 0.7220001 62 48 44 
0.149529 0.1728144 0.7180001 63 49 45 
0.1511765 0.1720923 0.715 64 50 46 
0.1525904 0.1711296 0.711 64 50 46 
0.1544144 0.1706482 0.7090001 66 52 48 
0.1560048 0.1699261 0.706 66 52 48 
0.1573519 0.1689634 0.702 65 51 47 
0.158901 0.1682413 0.6990001 68 54 50 
0.1604309 0.1675193 0.696 66 52 48 
0.1621755 0.1670379 0.694 69 53 50 
0.1636705 0.1663158 0.691 73 57 54 
0.1653865 0.1658344 0.689 77 61 58 
0.167333 0.1655937 0.688 78 62 57 
0.1690267 0.1651124 0.686 81 65 58 
0.1709573 0.1648717 0.6850001 86 67 61 
0.1731343 0.1648717 0.6850001 90 69 64 
0.1750553 0.164631 0.684 94 71 66 
0.17697 0.1643903 0.683 98 75 70 
0.1788784 0.1641496 0.682 101 79 71 
0.1807804 0.1639089 0.6810001 106 81 74 
0.182676 0.1636682 0.68 108 83 76 
0.1845653 0.1634275 0.679 110 85 78 
0.1867232 0.1634275 0.679 108 83 76 
0.1886029 0.1631869 0.678 107 82 75 
0.1907577 0.1631869 0.678 109 84 77 
0.1929124 0.1631869 0.678 113 88 81 
0.1950672 0.1631869 0.678 113 88 81 
0.1972219 0.1631869 0.678 114 89 82 
0.1996707 0.1634275 0.679 117 90 84 
0.2021258 0.1636682 0.68 118 90 87 
0.2042869 0.1636682 0.68 118 90 87 
0.2067517 0.1639089 0.6810001 120 94 90 
0.2089159 0.1639089 0.6810001 119 93 91 
0.2117001 0.1643903 0.683 115 89 87 
0.2141839 0.164631 0.684 116 90 88 
0.216674 0.1648717 0.6850001 116 90 88 
0.2191705 0.1651124 0.686 121 93 92 
0.2216733 0.1653531 0.687 137 106 108 
0.2238567 0.1653531 0.687 146 118 119 
0.2275589 0.1648717 0.6850001 36 28 57 
0.2297359 0.1648717 0.6850001 12 20 48 
0.2315743 0.164631 0.684 4 13 36 
0.2337481 0.164631 0.684 0 10 31 
0.02462173 0.1969717 0.813 20 41 58 
0.02720551 0.1969717 0.813 53 72 90 
0.02986258 0.1974563 0.8150001 95 105 123 
0.03249253 0.1976985 0.816 101 111 127 
0.03517184 0.1981831 0.818 94 102 117 
0.03781769 0.1984254 0.8190001 58 55 71 
0.04051924 0.1989099 0.821 51 46 54 
0.04318098 0.1991522 0.822 62 56 58 
0.04579336 0.1991522 0.822 62 57 55 
0.04834686 0.1989099 0.821 66 58 57 
0.05083193 0.1984254 0.8190001 67 59 56 
0.05323905 0.1976985 0.816 68 59 54 
0.0556271 0.1969717 0.813 68 59 54 
0.05792448 0.1960026 0.809 70 59 54 
0.06027121 0.1952758 0.8060001 70 59 54 
0.06259888 0.1945489 0.803 70 59 54 
0.06498861 0.1940644 0.8010001 67 56 49 
0.06736563 0.1935798 0.799 65 51 45 
0.06972993 0.1930953 0.7970001 67 51 46 
0.07217219 0.192853 0.7960001 67 51 46 
0.07451425 0.1923684 0.794 69 53 48 
0.0768436 0.1918839 0.7920001 68 54 48 
0.07916024 0.1913993 0.79 66 52 46 
0.08136078 0.1906725 0.7870001 66 52 44 
0.08364882 0.1901879 0.785 64 48 41 
0.08592413 0.1897034 0.7830001 62 46 39 
0.08818674 0.1892188 0.781 60 44 37 
0.09043664 0.1887343 0.779 62 48 40 
0.0927931 0.188492 0.7780001 63 49 41 
0.09514319 0.1882497 0.777 64 50 42 
0.09748694 0.1880074 0.776 63 49 41 
0.09982432 0.1877652 0.775 62 48 40 
0.1020234 0.1872806 0.7730001 63 49 41 
0.1042097 0.1867961 0.771 65 51 43 
0.106245 0.1860692 0.768 70 56 50 
0.1082612 0.1853424 0.765 72 58 52 
0.1102583 0.1846156 0.762 73 59 53 
0.1122364 0.1838887 0.7590001 75 61 57 
0.1143465 0.1834042 0.757 76 62 58 
0.1164438 0.1829196 0.7550001 78 64 60 
0.1185284 0.1824351 0.753 78 64 60 
0.120761 0.1821928 0.752 78 64 60 
0.1229871 0.1819505 0.751 79 63 60 
0.12504 0.1814659 0.749 79 63 60 
0.1272502 0.1812237 0.748 78 59 55 
0.1294542 0.1809814 0.747 77 56 53 
0.1314752 0.1804968 0.7450001 77 54 51 
0.1336632 0.1802545 0.744 71 48 45 
0.1356621 0.17977 0.742 66 45 42 
0.1376482 0.1792854 0.74 64 45 41 
0.1396216 0.1788009 0.738 64 45 41 
0.1415823 0.1783163 0.7360001 62 43 39 
0.1433347 0.1775895 0.733 64 45 41 
0.1450681 0.1768627 0.73 62 46 41 
0.1465805 0.1758936 0.726 62 48 44 
0.1482725 0.1751667 0.723 62 48 44 
0.1497372 0.1741976 0.719 63 49 45 
0.1511765 0.1732285 0.715 64 50 46 
0.152805 0.1725017 0.712 64 50 46 
0.1544144 0.1717748 0.7090001 65 51 47 
0.1560048 0.171048 0.706 66 52 48 
0.1575761 0.1703212 0.703 64 50 46 
0.1591283 0.1695943 0.7 66 52 48 
0.1606614 0.1688675 0.697 66 52 48 
0.1621755 0.1681407 0.694 68 54 50 
0.1639074 0.1676561 0.692 73 57 54 
0.1656265 0.1671716 0.6900001 76 60 57 
0.167333 0.166687 0.688 78 62 57 
0.1692731 0.1664447 0.687 81 65 58 
0.1712069 0.1662025 0.686 86 67 61 
0.1731343 0.1659602 0.6850001 89 68 63 
0.1753113 0.1659602 0.6850001 92 71 66 
0.1772291 0.1657179 0.684 97 74 69 
0.1791407 0.1654756 0.683 100 77 72 
0.1810458 0.1652333 0.682 104 82 74 
0.1829447 0.1649911 0.6810001 105 83 75 
0.1848371 0.1647488 0.68 107 85 77 
0.1869982 0.1647488 0.68 105 83 75 
0.1891593 0.1647488 0.68 108 83 76 
0.191039 0.1645065 0.679 111 84 78 
0.1931969 0.1645065 0.679 117 90 84 
0.1953549 0.1645065 0.679 117 90 84 
0.1975128 0.1645065 0.679 120 92 89 
0.1999648 0.1647488 0.68 121 93 90 
0.2021258 0.1647488 0.68 122 94 91 
0.2045874 0.1649911 0.6810001 118 90 87 
0.2067517 0.1649911 0.6810001 119 93 89 
0.2092227 0.1652333 0.682 113 90 87 
0.2120101 0.1657179 0.684 113 90 89 
0.214497 0.1659602 0.6850001 115 92 89 
0.2169903 0.1662025 0.686 119 93 91 
0.2198094 0.166687 0.688 123 95 94 
0.2216733 0.1664447 0.687 136 108 109 
0.2241825 0.166687 0.688 147 121 121 
0.225711 0.1662025 0.686 126 109 123 
0.2275589 0.1659602 0.6850001 25 26 57 
0.2294005 0.1657179 0.684 8 16 42 
0.2312358 0.1654756 0.683 2 11 32 
0.2334064 0.1654756 0.683 0 11 29 
0.02192952 0.1972881 0.809 14 25 36 
0.02453088 0.197532 0.8100001 21 38 54 
0.02713859 0.1977759 0.811 64 79 96 
0.02975265 0.1980197 0.812 102 112 130 
0.03237307 0.1982636 0.813 103 113 131 
0.03504285 0.1987513 0.8150001 103 106 125 
0.03767916 0.1989952 0.816 51 45 60 
0.04037118 0.1994829 0.818 61 55 61 
0.04302339 0.1997268 0.8190001 64 58 60 
0.04562624 0.1997268 0.8190001 67 59 58 
0.04822908 0.1997268 0.8190001 68 60 59 
0.0507078 0.1992391 0.817 68 60 59 
0.05317381 0.1987513 0.8150001 71 61 59 
0.05549026 0.1977759 0.811 71 61 59 
0.05792448 0.1972881 0.809 71 62 57 
0.06019644 0.1963127 0.8050001 71 60 55 
0.06259888 0.1958249 0.803 71 60 55 
0.06490748 0.1950933 0.8 70 59 52 
0.06728132 0.1946056 0.798 68 54 48 
0.06964244 0.1941179 0.7960001 69 53 48 
0.07199086 0.1936301 0.794 69 53 48 
0.07432656 0.1931424 0.7920001 71 55 50 
0.07664955 0.1926547 0.79 70 54 49 
0.07895983 0.1921669 0.788 70 54 49 
0.0812574 0.1916792 0.786 67 51 44 
0.0834357 0.1909476 0.7830001 64 48 41 
0.08570466 0.1904599 0.781 63 47 40 
0.08807383 0.190216 0.78 62 46 39 
0.09043664 0.1899721 0.779 62 48 40 
0.09267382 0.1894844 0.777 64 50 42 
0.09514319 0.1894844 0.777 65 51 43 
0.09748694 0.1892405 0.776 65 51 43 
0.09982432 0.1889967 0.775 64 50 44 
0.1020234 0.1885089 0.7730001 65 51 45 
0.1040745 0.1877773 0.77 66 52 44 
0.106245 0.1872896 0.768 71 57 51 
0.1082612 0.186558 0.765 72 58 52 
0.1102583 0.1858264 0.762 73 59 53 
0.1123843 0.1853387 0.7600001 76 62 56 
0.1144975 0.1848509 0.758 77 63 59 
0.1165981 0.1843632 0.756 78 64 60 
0.1186859 0.1838755 0.754 78 64 60 
0.1209216 0.1836316 0.753 80 64 61 
0.1231509 0.1833877 0.752 80 64 61 
0.1253739 0.1831439 0.751 82 63 59 
0.1272502 0.1824123 0.748 80 61 57 
0.1294542 0.1821684 0.747 78 59 55 
0.1316517 0.1819246 0.7460001 77 54 51 
0.1336632 0.1814368 0.744 74 51 48 
0.1358449 0.1811929 0.743 68 47 44 
0.1378342 0.1807052 0.7410001 64 45 41 
0.1398108 0.1802175 0.739 64 45 41 
0.1417746 0.1797297 0.737 62 43 39 
0.1435302 0.1789981 0.734 64 45 41 
0.1452668 0.1782665 0.731 64 45 41 
0.1467824 0.1772911 0.7270001 62 46 43 
0.1482725 0.1763156 0.723 63 47 44 
0.1497372 0.1753401 0.719 65 49 46 
0.151388 0.1746085 0.716 64 50 46 
0.152805 0.1736331 0.712 64 50 46 
0.1546322 0.1731453 0.71 65 51 47 
0.1562257 0.1724137 0.707 65 51 47 
0.1578002 0.1716821 0.7040001 64 50 46 
0.1593556 0.1709505 0.701 65 51 47 
0.1608919 0.1702189 0.698 65 51 47 
0.1621755 0.1692435 0.694 66 52 48 
0.1639074 0.1687557 0.692 70 56 52 
0.1656265 0.168268 0.6900001 74 58 55 
0.167333 0.1677803 0.688 77 61 56 
0.1692731 0.1675364 0.687 81 65 60 
0.1712069 0.1672926 0.686 86 67 63 
0.173387 0.1672926 0.686 88 69 63 
0.1753113 0.1670487 0.6850001 90 71 65 
0.1774883 0.1670487 0.6850001 95 74 69 
0.1794029 0.1668048 0.684 97 76 71 
0.1813113 0.1665609 0.683 104 81 76 
0.1832133 0.1663171 0.682 106 83 78 
0.1851089 0.1660732 0.6810001 107 84 79 
0.1872732 0.1660732 0.6810001 106 83 78 
0.1891593 0.1658293 0.68 106 83 78 
0.1913204 0.1658293 0.68 114 87 81 
0.1934815 0.1658293 0.68 120 93 87 
0.1956426 0.1658293 0.68 122 95 89 
0.1978037 0.1658293 0.68 124 96 93 
0.1999648 0.1658293 0.68 123 95 92 
0.2024231 0.1660732 0.6810001 124 96 93 
0.2045874 0.1660732 0.6810001 120 92 91 
0.2070553 0.1663171 0.682 117 91 89 
0.2098362 0.1668048 0.684 113 90 89 
0.21232 0.1670487 0.6850001 114 91 90 
0.2148101 0.1672926 0.686 120 94 94 
0.2173066 0.1675364 0.687 124 96 95 
0.2198094 0.1677803 0.688 129 101 100 
0.221996 0.1677803 0.688 139 111 110 
0.2241825 0.1677803 0.688 144 123 122 
0.225711 0.1672926 0.686 46 39 61 
0.2272267 0.1668048 0.684 15 21 48 
0.2290652 0.1665609 0.683 4 13 36 
0.2312358 0.1665609 0.683 1 11 27 
0.2334064 0.1665609 0.683 0 10 26 
0.0193106 0.1980828 0.807 9 19 24 
0.02187531 0.1980828 0.807 13 22 32 
0.02447031 0.1983282 0.808 45 57 71 
0.0270382 0.1983282 0.808 67 79 95 
0.02964273 0.1985737 0.809 103 113 131 
0.03225362 0.1988191 0.8100001 103 113 131 
0.03491386 0.19931 0.812 89 89 107 
0.03754063 0.1995555 0.813 61 56 66 
0.04017377 0.199801 0.814 66 60 62 
0.04286579 0.2002919 0.816 68 60 59 
0.04551481 0.2005373 0.817 72 62 62 
0.04805242 0.2002919 0.816 72 62 62 
0.05058367 0.2000464 0.8150001 72 62 62 
0.05304332 0.1995555 0.813 73 63 61 
0.05542183 0.1988191 0.8100001 73 63 61 
0.05778128 0.1980828 0.807 73 63 61 
0.06012166 0.1973464 0.804 74 63 58 
0.06244297 0.19661 0.8010001 74 63 58 
0.06482634 0.1961191 0.799 71 60 55 
0.06711269 0.1953828 0.7960001 72 56 51 
0.06955495 0.1951373 0.795 70 54 49 
0.07190019 0.1946464 0.793 70 54 49 
0.07423271 0.1941555 0.791 73 57 52 
0.0764555 0.1934191 0.788 71 55 50 
0.07875942 0.1929282 0.786 71 55 50 
0.08094726 0.1921918 0.7830001 67 51 44 
0.08332914 0.1919464 0.7820001 65 49 42 
0.08559492 0.1914555 0.78 63 47 40 
0.08796091 0.19121 0.779 63 47 40 
0.09032055 0.1909646 0.7780001 64 48 41 
0.09267382 0.1907191 0.777 65 51 43 
0.09514319 0.1907191 0.777 66 52 44 
0.09748694 0.1904736 0.776 65 51 43 
0.09982432 0.1902282 0.775 66 52 46 
0.1020234 0.1897373 0.7730001 66 52 46 
0.1040745 0.1890009 0.77 68 54 48 
0.1061066 0.1882645 0.767 72 58 52 
0.1082612 0.1877736 0.765 75 61 55 
0.1102583 0.1870373 0.762 73 59 53 
0.1123843 0.1865464 0.7600001 76 62 56 
0.1146486 0.1863009 0.7590001 77 63 57 
0.1167523 0.18581 0.757 78 64 60 
0.1190007 0.1855645 0.756 80 64 61 
0.1210821 0.1850736 0.754 80 64 61 
0.1233146 0.1848282 0.753 83 64 62 
0.1255408 0.1845827 0.752 82 63 59 
0.1275905 0.1840918 0.7500001 81 62 58 
0.1294542 0.1833554 0.747 79 60 56 
0.1316517 0.18311 0.7460001 78 55 52 
0.1338429 0.1828645 0.7450001 76 53 50 
0.1358449 0.1823736 0.743 71 48 45 
0.1380202 0.1821281 0.742 65 46 42 
0.1398108 0.1813918 0.739 64 45 41 
0.1417746 0.1809009 0.737 62 43 39 
0.1435302 0.1801645 0.734 64 45 41 
0.1452668 0.1794281 0.731 64 45 41 
0.1467824 0.1784463 0.7270001 62 46 43 
0.1482725 0.1774645 0.723 63 47 44 
0.1499455 0.1767281 0.72 65 49 46 
0.151388 0.1757463 0.716 65 49 46 
0.1530196 0.1750099 0.7130001 65 49 46 
0.15485 0.174519 0.711 64 50 46 
0.1562257 0.1735372 0.707 65 51 47 
0.1578002 0.1728008 0.7040001 64 50 46 
0.1593556 0.1720645 0.701 64 50 46 
0.1608919 0.1713281 0.698 65 51 47 
0.1624092 0.1705917 0.6950001 65 51 47 
0.1641442 0.1701008 0.693 69 55 51 
0.1658666 0.1696099 0.691 72 58 54 
0.167333 0.1688735 0.688 76 60 57 
0.1692731 0.1686281 0.687 79 63 58 
0.1712069 0.1683826 0.686 84 68 63 
0.173387 0.1683826 0.686 85 69 64 
0.1753113 0.1681372 0.6850001 90 71 65 
0.1774883 0.1681372 0.6850001 94 73 68 
0.1794029 0.1678917 0.684 98 77 72 
0.1813113 0.1676463 0.683 102 81 76 
0.1834819 0.1676463 0.683 105 84 79 
0.1853807 0.1674008 0.682 105 84 79 
0.1872732 0.1671554 0.6810001 108 85 80 
0.1894375 0.1671554 0.6810001 108 85 80 
0.1913204 0.1669099 0.68 114 88 84 
0.1934815 0.1669099 0.68 122 94 91 
0.1956426 0.1669099 0.68 125 97 94 
0.1978037 0.1669099 0.68 127 99 96 
0.2002589 0.1671554 0.6810001 127 99 98 
0.2027203 0.1674008 0.682 128 102 102 
0.2048878 0.1674008 0.682 122 99 98 
0.2073589 0.1676463 0.683 118 95 94 
0.210143 0.1681372 0.6850001 115 93 95 
0.21232 0.1681372 0.6850001 117 96 95 
0.2151233 0.1686281 0.687 126 100 100 
0.2176229 0.1688735 0.688 132 101 101 
0.2201289 0.169119 0.689 138 110 107 
0.221996 0.1688735 0.688 142 116 112 
0.2235308 0.1683826 0.686 142 126 133 
0.2250529 0.1678917 0.684 22 21 48 
0.2268945 0.1676463 0.683 9 18 41 
0.2287298 0.1674008 0.682 2 11 32 
0.2308972 0.1674008 0.682 0 10 24 
0.2334064 0.1676463 0.683 0 8 22 
0.0193106 0.1993651 0.807 9 19 24 
0.0218482 0.1991181 0.8060001 9 18 28 
0.02440974 0.1991181 0.8060001 60 71 82 
0.02693781 0.198871 0.8050001 67 79 95 
0.02956945 0.1993651 0.807 104 114 132 
0.03213416 0.1993651 0.807 104 114 132 
0.03474186 0.1996122 0.808 60 57 76 
0.03735593 0.1998592 0.809 65 61 66 
0.03997635 0.2001063 0.8100001 70 64 66 
0.04265567 0.2006003 0.812 72 64 63 
0.04529198 0.2008474 0.813 74 64 64 
0.04787575 0.2008474 0.813 75 65 65 
0.05039747 0.2006003 0.812 74 64 64 
0.05284759 0.2001063 0.8100001 75 65 63 
0.05521657 0.1993651 0.807 75 65 63 
0.05763808 0.198871 0.8050001 74 64 62 
0.0599721 0.1981299 0.802 76 64 62 
0.06236501 0.1976358 0.8 75 64 59 
0.06474521 0.1971417 0.798 75 64 59 
0.06702838 0.1964006 0.795 76 60 55 
0.06937997 0.1959065 0.793 73 57 52 
0.07171885 0.1954124 0.791 72 56 51 
0.07404502 0.1949183 0.789 76 60 55 
0.07626145 0.1941772 0.786 73 57 52 
0.07855902 0.1936831 0.784 71 55 50 
0.08084388 0.193189 0.7820001 69 53 48 
0.08311602 0.1926949 0.78 65 49 44 
0.08548519 0.1924479 0.779 64 48 43 
0.08796091 0.1924479 0.779 63 47 40 
0.09032055 0.1922008 0.7780001 65 49 42 
0.09267382 0.1919538 0.777 66 52 44 
0.09514319 0.1919538 0.777 68 54 46 
0.09748694 0.1917067 0.776 68 54 46 
0.09982432 0.1914597 0.775 69 55 49 
0.1020234 0.1909656 0.7730001 68 54 48 
0.1040745 0.1902245 0.77 71 57 51 
0.1061066 0.1894833 0.767 72 58 52 
0.1082612 0.1889892 0.765 76 62 56 
0.1102583 0.1882481 0.762 75 61 55 
0.1125322 0.1880011 0.761 77 63 57 
0.1146486 0.187507 0.7590001 77 63 57 
0.1169065 0.1872599 0.758 79 65 59 
0.1191581 0.1870129 0.757 80 64 59 
0.1214033 0.1867658 0.756 83 64 60 
0.1234784 0.1862717 0.754 83 64 60 
0.1257077 0.1860247 0.753 82 63 59 
0.1277606 0.1855306 0.751 81 62 58 
0.1298007 0.1850365 0.749 80 61 57 
0.1318282 0.1845424 0.747 78 55 52 
0.1338429 0.1840484 0.7450001 77 54 51 
0.1360277 0.1838013 0.744 71 48 45 
0.1380202 0.1833072 0.742 66 45 42 
0.14 0.1828131 0.74 65 46 42 
0.141967 0.182319 0.738 61 42 38 
0.1437258 0.1815779 0.735 62 43 39 
0.1454655 0.1808368 0.7320001 64 45 41 
0.1469843 0.1798486 0.728 64 45 41 
0.1484776 0.1788604 0.724 65 46 44 
0.1499455 0.1778722 0.72 66 50 47 
0.1515994 0.1771311 0.717 65 49 46 
0.1532342 0.17639 0.714 65 49 46 
0.15485 0.1756488 0.711 65 49 46 
0.1564467 0.1749077 0.708 64 50 46 
0.1580244 0.1741666 0.705 64 50 46 
0.1593556 0.1731784 0.701 63 49 45 
0.1608919 0.1724372 0.698 64 50 46 
0.1624092 0.1716961 0.6950001 65 51 47 
0.1641442 0.171202 0.693 69 55 51 
0.1658666 0.1707079 0.691 71 57 53 
0.167333 0.1699668 0.688 74 58 55 
0.1692731 0.1697197 0.687 76 60 57 
0.1712069 0.1694727 0.686 83 67 64 
0.1731343 0.1692257 0.6850001 85 69 64 
0.1753113 0.1692257 0.6850001 89 70 64 
0.1774883 0.1692257 0.6850001 93 74 68 
0.1794029 0.1689786 0.684 96 77 71 
0.1815768 0.1689786 0.684 102 81 78 
0.1834819 0.1687316 0.683 106 85 82 
0.1853807 0.1684845 0.682 108 87 84 
0.1875482 0.1684845 0.682 110 87 84 
0.1897156 0.1684845 0.682 114 91 88 
0.1916018 0.1682375 0.6810001 115 92 89 
0.193766 0.1682375 0.6810001 123 97 95 
0.1959303 0.1682375 0.6810001 127 101 99 
0.1980946 0.1682375 0.6810001 127 101 99 
0.2005529 0.1684845 0.682 130 104 102 
0.2027203 0.1684845 0.682 132 109 108 
0.2051882 0.1687316 0.683 134 112 114 
0.2073589 0.1687316 0.683 130 110 111 
0.210143 0.1692257 0.6850001 130 110 113 
0.21263 0.1694727 0.686 137 118 116 
0.2154364 0.1699668 0.688 136 108 109 
0.2176229 0.1699668 0.688 140 109 109 
0.2198094 0.1699668 0.688 144 116 113 
0.221996 0.1699668 0.688 141 120 117 
0.2225533 0.1687316 0.683 67 54 72 
0.2243949 0.1684845 0.682 18 22 47 
0.2265623 0.1684845 0.682 4 13 34 
0.2287298 0.1684845 0.682 1 11 29 
0.2308972 0.1684845 0.682 0 10 24 
0.2334064 0.1687316 0.683 0 9 20 
0.01926274 0.2001502 0.8050001 9 19 24 
0.02176688 0.1996529 0.803 18 28 35 
0.02431888 0.1996529 0.803 61 71 78 
0.02687088 0.1996529 0.803 67 77 93 
0.02942288 0.1996529 0.803 104 114 132 
0.0320147 0.1999016 0.804 105 113 132 
0.03461288 0.2001502 0.8050001 62 60 76 
0.0372174 0.2003988 0.8060001 70 66 71 
0.03982829 0.2006475 0.807 73 67 69 
0.04244554 0.2008961 0.808 74 66 65 
0.04506914 0.2011447 0.809 76 66 66 
0.0476402 0.2011447 0.809 78 68 68 
0.05021127 0.2011447 0.809 78 68 68 
0.05265185 0.2006475 0.807 78 68 66 
0.05514815 0.2003988 0.8060001 78 68 66 
0.05749488 0.1996529 0.803 78 68 66 
0.05982254 0.198907 0.8 77 65 63 
0.0622091 0.1984098 0.798 76 64 62 
0.06458294 0.1979125 0.7960001 77 66 61 
0.06694407 0.1974152 0.794 76 62 56 
0.06920499 0.1966693 0.791 77 61 56 
0.07162818 0.1964207 0.79 74 58 53 
0.07385733 0.1956748 0.7870001 77 61 56 
0.07616443 0.1951775 0.785 74 58 53 
0.07835862 0.1944316 0.7820001 72 56 51 
0.08063711 0.1939344 0.78 69 53 48 
0.08300946 0.1936857 0.779 66 50 45 
0.08537545 0.1934371 0.7780001 65 49 44 
0.087848 0.1934371 0.7780001 65 49 44 
0.09020445 0.1931885 0.777 65 49 44 
0.09267382 0.1931885 0.777 69 55 49 
0.09514319 0.1931885 0.777 69 55 49 
0.09748694 0.1929398 0.776 70 56 50 
0.09982432 0.1926912 0.775 70 56 50 
0.1020234 0.1921939 0.7730001 69 55 49 
0.1040745 0.191448 0.77 72 58 52 
0.1061066 0.1907021 0.767 73 59 53 
0.1082612 0.1902049 0.765 77 63 57 
0.110403 0.1897076 0.763 77 63 57 
0.1125322 0.1892103 0.761 78 64 58 
0.1147996 0.1889617 0.7600001 78 64 58 
0.1170608 0.1887131 0.7590001 80 64 59 
0.1193155 0.1884644 0.758 83 64 60 
0.1215639 0.1882158 0.757 83 64 60 
0.1236422 0.1877185 0.7550001 84 63 60 
0.1258747 0.1874699 0.754 84 63 60 
0.1279307 0.1869726 0.752 83 62 59 
0.1299741 0.1864754 0.7500001 81 62 58 
0.1320046 0.1859781 0.748 79 56 53 
0.1340225 0.1854808 0.7460001 77 54 51 
0.1360277 0.1849835 0.744 72 49 46 
0.1382062 0.1847349 0.743 67 46 43 
0.1401892 0.1842376 0.7410001 65 46 42 
0.141967 0.1834917 0.738 61 42 38 
0.1439213 0.1829945 0.7360001 62 43 39 
0.1454655 0.182 0.7320001 64 45 41 
0.1469843 0.1810054 0.728 65 46 42 
0.1484776 0.1800109 0.724 66 47 45 
0.1501537 0.179265 0.721 66 50 47 
0.1518108 0.1785191 0.7180001 67 51 46 
0.1534489 0.1777732 0.715 65 49 44 
0.1550678 0.1770273 0.712 65 49 46 
0.1568887 0.17653 0.71 63 49 45 
0.1582485 0.1755355 0.706 63 49 45 
0.1595829 0.1745409 0.702 63 49 45 
0.1611224 0.173795 0.6990001 64 50 46 
0.1624092 0.1728005 0.6950001 65 51 47 
0.1641442 0.1723032 0.693 68 54 50 
0.1656265 0.1715573 0.6900001 70 56 52 
0.167333 0.1710601 0.688 72 56 53 
0.1692731 0.1708114 0.687 73 57 54 
0.1712069 0.1705628 0.686 81 65 62 
0.1731343 0.1703142 0.6850001 84 68 63 
0.1753113 0.1703142 0.6850001 86 70 65 
0.1772291 0.1700655 0.684 89 73 68 
0.1794029 0.1700655 0.684 94 78 73 
0.1815768 0.1700655 0.684 101 82 78 
0.1834819 0.1698169 0.683 106 85 82 
0.1856525 0.1698169 0.683 109 88 85 
0.1875482 0.1695683 0.682 113 90 87 
0.1897156 0.1695683 0.682 118 95 94 
0.1918831 0.1695683 0.682 119 96 93 
0.1940505 0.1695683 0.682 122 99 96 
0.196218 0.1695683 0.682 125 102 101 
0.1983854 0.1695683 0.682 128 105 104 
0.2005529 0.1695683 0.682 133 110 109 
0.2027203 0.1695683 0.682 136 114 116 
0.2051882 0.1698169 0.683 143 121 125 
0.2079661 0.1703142 0.6850001 147 126 133 
0.2104498 0.1705628 0.686 141 123 129 
0.2129399 0.1708114 0.687 147 127 128 
0.2154364 0.1710601 0.688 146 118 119 
0.2176229 0.1710601 0.688 144 116 115 
0.21949 0.1708114 0.687 149 121 118 
0.2222274 0.1695683 0.682 24 20 43 
0.2240659 0.1693196 0.6810001 9 16 38 
0.2262301 0.1693196 0.6810001 2 12 30 
0.2283944 0.1693196 0.6810001 0 10 24 
0.2308972 0.1695683 0.682 0 9 20 
0.2334064 0.1698169 0.683 0 9 20 
0.01921488 0.2009289 0.803 14 26 30 
0.02173977 0.2006787 0.802 57 67 72 
0.02425831 0.2004285 0.8010001 65 75 82 
0.02677049 0.2001783 0.8 69 77 96 
0.02931296 0.2001783 0.8 103 113 131 
0.03189524 0.2004285 0.8010001 107 115 134 
0.03448388 0.2006787 0.802 68 66 82 
0.03707888 0.2009289 0.803 75 69 75 
0.03968023 0.2011792 0.804 77 68 73 
0.04228795 0.2014294 0.8050001 78 69 72 
0.04490201 0.2016796 0.8060001 80 69 73 
0.04746354 0.2016796 0.8060001 80 69 73 
0.04996301 0.2014294 0.8050001 80 70 70 
0.05239088 0.2009289 0.803 80 70 70 
0.05487446 0.2006787 0.802 79 69 69 
0.05728007 0.2001783 0.8 80 70 70 
0.05967299 0.1996778 0.798 81 69 67 
0.06205319 0.1991774 0.7960001 78 66 64 
0.06442067 0.1986769 0.794 80 66 62 
0.06677544 0.1981765 0.7920001 78 64 60 
0.06911749 0.197676 0.79 78 62 57 
0.07135618 0.1969254 0.7870001 78 62 57 
0.07366963 0.1964249 0.785 78 62 57 
0.07597038 0.1959245 0.7830001 76 60 55 
0.07825841 0.195424 0.781 72 56 51 
0.08053374 0.1949236 0.779 69 53 48 
0.0829029 0.1946734 0.7780001 66 50 45 
0.08526571 0.1944231 0.777 66 50 45 
0.08773508 0.1944231 0.777 66 50 45 
0.09020445 0.1944231 0.777 66 50 45 
0.09267382 0.1944231 0.777 70 56 50 
0.09514319 0.1944231 0.777 71 57 51 
0.09748694 0.1941729 0.776 71 57 51 
0.09982432 0.1939227 0.775 71 57 51 
0.1020234 0.1934223 0.7730001 70 56 50 
0.1040745 0.1926716 0.77 73 59 53 
0.1061066 0.1919209 0.767 76 62 56 
0.1082612 0.1914205 0.765 77 63 57 
0.110403 0.19092 0.763 78 64 58 
0.11268 0.1906698 0.762 78 64 58 
0.1149507 0.1904196 0.761 79 65 59 
0.117215 0.1901694 0.7600001 81 65 60 
0.1194729 0.1899191 0.7590001 83 64 60 
0.1217245 0.1896689 0.758 83 64 60 
0.1238059 0.1891685 0.756 84 63 60 
0.1260416 0.1889182 0.7550001 84 63 60 
0.1281008 0.1884178 0.753 84 63 60 
0.1301473 0.1879174 0.751 82 61 58 
0.1320046 0.1871667 0.748 79 56 53 
0.1342022 0.1869165 0.747 77 54 49 
0.1362106 0.186416 0.7450001 74 51 46 
0.1382062 0.1859156 0.743 69 48 43 
0.1401892 0.1854151 0.7410001 67 46 41 
0.1421594 0.1849147 0.739 63 42 39 
0.1441169 0.1844142 0.737 62 43 39 
0.145863 0.1836636 0.734 64 45 41 
0.1471862 0.1824124 0.729 65 46 42 
0.1488877 0.1816618 0.726 67 48 46 
0.1505703 0.1809111 0.723 69 50 48 
0.1520223 0.1799102 0.719 71 52 48 
0.1536635 0.1791596 0.716 68 49 45 
0.1555034 0.1786591 0.714 66 50 47 
0.1571096 0.1779084 0.711 65 49 46 
0.1584727 0.1769075 0.707 63 49 45 
0.1598102 0.1759067 0.703 63 49 45 
0.1611224 0.1749058 0.6990001 64 50 46 
0.1624092 0.1739049 0.6950001 64 50 46 
0.1641442 0.1734044 0.693 66 52 48 
0.1656265 0.1726538 0.6900001 69 55 51 
0.167333 0.1721533 0.688 69 55 51 
0.1692731 0.1719031 0.687 70 56 52 
0.1712069 0.1716529 0.686 77 63 59 
0.1731343 0.1714026 0.6850001 82 68 64 
0.1753113 0.1714026 0.6850001 84 70 64 
0.1772291 0.1711524 0.684 87 73 67 
0.1794029 0.1711524 0.684 94 78 73 
0.1815768 0.1711524 0.684 99 83 80 
0.1834819 0.1709022 0.683 105 86 84 
0.1856525 0.1709022 0.683 110 89 88 
0.1875482 0.170652 0.682 115 92 91 
0.1897156 0.170652 0.682 120 97 96 
0.1918831 0.170652 0.682 121 98 97 
0.1940505 0.170652 0.682 122 99 98 
0.196218 0.170652 0.682 125 102 101 
0.1983854 0.170652 0.682 127 105 109 
0.2005529 0.170652 0.682 132 112 115 
0.2030176 0.1709022 0.683 143 122 129 
0.2054886 0.1711524 0.684 147 126 133 
0.2079661 0.1714026 0.6850001 151 133 139 
0.2104498 0.1716529 0.686 152 134 142 
0.2129399 0.1719031 0.687 157 136 143 
0.2154364 0.1721533 0.688 154 127 130 
0.2176229 0.1721533 0.688 147 121 121 
0.2191705 0.1716529 0.686 148 122 120 
0.2215757 0.1701515 0.68 18 21 42 
0.2237368 0.1701515 0.68 5 13 30 
0.2255657 0.1699013 0.679 1 9 24 
0.228059 0.1701515 0.68 0 8 20 
0.0191431 0.2014495 0.8 60 73 72 
0.02165845 0.2011977 0.799 55 65 68 
0.02419774 0.2011977 0.799 68 77 87 
0.02670357 0.2009459 0.798 68 78 96 
0.02923968 0.2009459 0.798 99 109 127 
0.03177578 0.2009459 0.798 112 120 137 
0.03435489 0.2011977 0.799 72 70 86 
0.03694035 0.2014495 0.8 78 72 78 
0.03953217 0.2017013 0.8010001 80 71 76 
0.04213035 0.2019531 0.802 81 72 77 
0.04467917 0.2019531 0.802 81 72 75 
0.04722799 0.2019531 0.802 82 73 76 
0.04971475 0.2017013 0.8010001 81 72 75 
0.0521299 0.2011977 0.799 82 74 73 
0.05466919 0.2011977 0.799 81 71 71 
0.05699368 0.2004423 0.7960001 81 71 71 
0.05944865 0.2001904 0.795 84 69 68 
0.06189727 0.1999386 0.794 83 68 67 
0.0642584 0.199435 0.7920001 83 69 65 
0.06660682 0.1989314 0.79 79 65 61 
0.06894252 0.1984278 0.788 80 64 61 
0.0712655 0.1979241 0.786 80 64 59 
0.07348194 0.1971687 0.7830001 79 63 58 
0.07577633 0.1966651 0.781 77 61 56 
0.07815821 0.1964133 0.78 72 56 51 
0.08043035 0.1959096 0.7780001 71 55 50 
0.08279634 0.1956578 0.777 69 53 48 
0.08526571 0.1956578 0.777 67 51 46 
0.08773508 0.1956578 0.777 69 53 48 
0.09020445 0.1956578 0.777 69 53 48 
0.09267382 0.1956578 0.777 73 59 53 
0.09514319 0.1956578 0.777 73 59 53 
0.09748694 0.195406 0.776 73 59 53 
0.09982432 0.1951542 0.775 73 59 53 
0.1020234 0.1946506 0.7730001 72 58 52 
0.1040745 0.1938951 0.77 73 59 53 
0.106245 0.1933915 0.768 77 63 57 
0.1082612 0.1926361 0.765 78 64 58 
0.110403 0.1921325 0.763 79 65 59 
0.11268 0.1918806 0.762 79 65 59 
0.1149507 0.1916288 0.761 81 65 60 
0.117215 0.191377 0.7600001 81 65 60 
0.1196303 0.191377 0.7600001 81 65 60 
0.1218851 0.1911252 0.7590001 83 64 60 
0.1239697 0.1906216 0.757 83 64 60 
0.1262086 0.1903698 0.756 83 64 60 
0.128271 0.1898661 0.754 83 64 60 
0.1303206 0.1893625 0.752 82 61 58 
0.1321811 0.1886071 0.749 80 59 54 
0.1342022 0.1881035 0.747 81 59 51 
0.1362106 0.1875999 0.7450001 75 53 45 
0.1383922 0.187348 0.744 72 52 44 
0.1403783 0.1868444 0.742 67 46 41 
0.1423517 0.1863408 0.74 63 42 37 
0.1441169 0.1855853 0.737 62 41 36 
0.1460617 0.1850817 0.735 63 42 37 
0.14759 0.1840745 0.731 65 46 42 
0.1490928 0.1830672 0.7270001 67 48 46 
0.1507785 0.1823118 0.724 69 50 48 
0.1524451 0.1815564 0.721 71 52 48 
0.1540927 0.1808009 0.7180001 69 50 46 
0.155939 0.1802973 0.716 69 50 46 
0.1573306 0.1792901 0.712 67 51 48 
0.158921 0.1785346 0.7090001 64 48 45 
0.1602649 0.1775274 0.705 64 50 46 
0.1613529 0.1762683 0.7 64 50 46 
0.1626429 0.1752611 0.696 64 49 48 
0.1641442 0.1745056 0.693 65 51 47 
0.1656265 0.1737502 0.6900001 69 55 51 
0.167333 0.1732466 0.688 68 54 50 
0.1692731 0.1729948 0.687 70 56 52 
0.1709573 0.1724911 0.6850001 75 61 57 
0.1731343 0.1724911 0.6850001 79 65 61 
0.1753113 0.1724911 0.6850001 83 69 65 
0.1772291 0.1722393 0.684 85 71 67 
0.1794029 0.1722393 0.684 93 79 75 
0.1815768 0.1722393 0.684 96 80 77 
0.1834819 0.1719875 0.683 102 86 83 
0.1856525 0.1719875 0.683 107 91 88 
0.1875482 0.1717357 0.682 115 94 93 
0.1897156 0.1717357 0.682 119 97 99 
0.1918831 0.1717357 0.682 120 98 100 
0.1940505 0.1717357 0.682 119 97 99 
0.196218 0.1717357 0.682 122 102 103 
0.1983854 0.1717357 0.682 128 108 111 
0.2005529 0.1717357 0.682 133 115 121 
0.2030176 0.1719875 0.683 144 126 134 
0.2054886 0.1722393 0.684 151 130 137 
0.2079661 0.1724911 0.6850001 156 138 144 
0.2107566 0.1729948 0.687 155 139 146 
0.2132499 0.1732466 0.688 159 141 147 
0.2154364 0.1732466 0.688 156 132 134 
0.2169903 0.1727429 0.686 150 124 124 
0.218851 0.1724911 0.6850001 149 126 125 
0.2197373 0.1714839 0.6810001 42 34 52 
0.2212499 0.1709803 0.679 13 18 38 
0.2230788 0.1707284 0.678 3 11 26 
0.2252335 0.1707284 0.678 0 8 20 
0.2277236 0.1709803 0.679 0 8 18 
0.01907131 0.2019605 0.7970001 57 68 68 
0.02157713 0.2017072 0.7960001 55 65 68 
0.02410689 0.2017072 0.7960001 69 78 88 
0.02660318 0.2014537 0.795 71 81 97 
0.02912975 0.2014537 0.795 90 101 122 
0.03165632 0.2014537 0.795 110 120 134 
0.0342259 0.2017072 0.7960001 74 75 90 
0.03675565 0.2017072 0.7960001 81 74 83 
0.03938411 0.2022139 0.798 83 74 81 
0.04197275 0.2024673 0.799 85 76 83 
0.04451204 0.2024673 0.799 82 73 78 
0.04705133 0.2024673 0.799 85 76 81 
0.04952855 0.2022139 0.798 82 73 78 
0.05193417 0.2017072 0.7960001 85 76 79 
0.0543955 0.2014537 0.795 83 72 76 
0.05685048 0.2012003 0.794 82 72 72 
0.0592991 0.2009469 0.793 84 72 72 
0.06174136 0.2006935 0.7920001 85 70 71 
0.06409613 0.2001867 0.79 85 70 69 
0.06643819 0.1996799 0.788 82 68 64 
0.06885502 0.1994265 0.7870001 80 66 62 
0.07117484 0.1989197 0.785 82 68 64 
0.0733881 0.1981595 0.7820001 80 64 59 
0.0756793 0.1976527 0.78 78 62 57 
0.078058 0.1973993 0.779 73 57 52 
0.08032697 0.1968925 0.777 72 56 51 
0.08279634 0.1968925 0.777 70 54 49 
0.08515597 0.1966391 0.776 69 53 48 
0.08762217 0.1966391 0.776 71 55 50 
0.09020445 0.1968925 0.777 71 55 50 
0.09267382 0.1968925 0.777 75 61 55 
0.09514319 0.1968925 0.777 75 61 55 
0.09748694 0.1966391 0.776 75 61 55 
0.09982432 0.1963857 0.775 75 61 55 
0.1020234 0.1958789 0.7730001 73 59 53 
0.1040745 0.1951187 0.77 76 62 56 
0.106245 0.1946119 0.768 77 63 57 
0.1082612 0.1938517 0.765 80 64 59 
0.110403 0.1933449 0.763 80 64 59 
0.11268 0.1930915 0.762 81 65 60 
0.1149507 0.1928381 0.761 83 67 62 
0.1173692 0.1928381 0.761 81 65 60 
0.1196303 0.1925847 0.7600001 85 66 62 
0.1218851 0.1923313 0.7590001 85 66 62 
0.1241335 0.1920779 0.758 86 67 63 
0.1262086 0.1915711 0.756 85 66 62 
0.128271 0.1910643 0.754 83 64 60 
0.1303206 0.1905575 0.752 83 62 59 
0.1321811 0.1897973 0.749 82 61 56 
0.1342022 0.1892905 0.747 82 60 52 
0.1363934 0.1890371 0.7460001 76 54 46 
0.1383922 0.1885303 0.744 73 53 45 
0.1403783 0.1880235 0.742 67 46 41 
0.1425441 0.1877701 0.7410001 63 42 37 
0.1443124 0.1870099 0.738 62 41 36 
0.1462604 0.1865031 0.7360001 63 42 37 
0.1479938 0.1857429 0.733 66 45 42 
0.149503 0.1847293 0.729 67 48 44 
0.151195 0.1839691 0.726 69 50 46 
0.152868 0.1832089 0.723 71 52 48 
0.1545219 0.1824487 0.72 71 52 48 
0.1561568 0.1816885 0.717 72 53 49 
0.1579935 0.1811817 0.715 69 53 50 
0.1593692 0.1801681 0.711 65 49 46 
0.1604922 0.1789011 0.706 64 50 46 
0.1615834 0.1776341 0.701 65 50 49 
0.1628765 0.1766205 0.697 64 49 48 
0.1641442 0.1756068 0.693 65 50 49 
0.1656265 0.1748466 0.6900001 68 54 50 
0.167333 0.1743398 0.688 68 54 50 
0.1692731 0.1740864 0.687 69 54 53 
0.1709573 0.1735796 0.6850001 73 59 55 
0.1731343 0.1735796 0.6850001 77 63 59 
0.1750553 0.1733262 0.684 80 66 62 
0.1772291 0.1733262 0.684 83 69 65 
0.1794029 0.1733262 0.684 88 74 70 
0.1815768 0.1733262 0.684 94 77 77 
0.1834819 0.1730728 0.683 100 83 83 
0.1856525 0.1730728 0.683 105 88 88 
0.1875482 0.1728194 0.682 112 92 93 
0.1897156 0.1728194 0.682 118 98 99 
0.1918831 0.1728194 0.682 119 97 99 
0.1940505 0.1728194 0.682 117 97 98 
0.196218 0.1728194 0.682 119 102 104 
0.1983854 0.1728194 0.682 129 113 118 
0.2005529 0.1728194 0.682 136 120 127 
0.2030176 0.1730728 0.683 147 129 137 
0.2054886 0.1733262 0.684 150 132 138 
0.2079661 0.1735796 0.6850001 157 139 145 
0.2107566 0.1740864 0.687 157 141 146 
0.2132499 0.1743398 0.688 162 146 151 
0.2151233 0.1740864 0.687 159 137 139 
0.216674 0.1735796 0.6850001 150 127 124 
0.218212 0.1730728 0.683 152 130 134 
0.219092 0.1720592 0.679 26 22 43 
0.2205982 0.1715524 0.677 8 13 31 
0.2227498 0.1715524 0.677 1 10 22 
0.2249013 0.1715524 0.677 1 7 18 
0.2273882 0.1718058 0.678 0 8 15 
0.01649687 0.202717 0.795 57 71 73 
0.01899952 0.202462 0.794 58 69 69 
0.02152292 0.202462 0.794 55 65 68 
0.02398575 0.2019521 0.7920001 68 77 89 
0.02650279 0.2019521 0.7920001 74 84 100 
0.02901983 0.2019521 0.7920001 83 94 115 
0.03153687 0.2019521 0.7920001 107 119 135 
0.03405391 0.2019521 0.7920001 102 103 118 
0.0366633 0.202462 0.794 83 78 88 
0.0391867 0.202462 0.794 84 78 84 
0.04176263 0.202717 0.795 88 79 86 
0.0442892 0.202717 0.795 86 77 84 
0.04681578 0.202717 0.795 87 78 83 
0.04928029 0.202462 0.794 86 77 82 
0.05173844 0.202207 0.793 88 79 84 
0.05419024 0.2019521 0.7920001 86 77 80 
0.05663567 0.2016971 0.791 86 75 79 
0.05914954 0.2016971 0.791 86 74 74 
0.06158544 0.2014421 0.79 87 72 73 
0.06393386 0.2009321 0.788 86 71 70 
0.06635388 0.2006771 0.7870001 84 70 66 
0.06868004 0.2001671 0.785 83 69 65 
0.07099351 0.1996571 0.7830001 84 70 66 
0.07329424 0.1991471 0.781 81 65 62 
0.0756793 0.1988922 0.78 78 62 59 
0.07795781 0.1983822 0.7780001 74 58 53 
0.08032697 0.1981272 0.777 73 57 52 
0.08268978 0.1978722 0.776 71 55 50 
0.08515597 0.1978722 0.776 71 55 50 
0.08762217 0.1978722 0.776 72 56 51 
