ply
format ascii 1.0
element vertex 1207
property float32 x
property float32 y
property float32 z
property uchar red
property uchar green
property uchar blue
end_header
-0.07568073 0.1607896 0.619 108 130 152 
-0.06377415 0.1605299 0.618 116 141 164 
-0.05182157 0.1600104 0.6160001 108 128 150 
-0.03968503 0.1584518 0.61 96 115 133 
-0.0278233 0.157153 0.605 106 127 146 
-0.0160715 0.155075 0.597 82 104 116 
-0.004616947 0.1527372 0.588 80 100 113 
0.006494377 0.1503994 0.5790001 46 53 61 
0.01729275 0.1483213 0.571 62 59 56 
0.02778603 0.1462432 0.563 90 85 83 
0.03845317 0.1459835 0.562 81 75 77 
0.04855723 0.1441652 0.555 75 70 68 
0.05892713 0.1436457 0.553 118 109 114 
0.07010014 0.1449445 0.558 148 144 147 
0.08233201 0.1478018 0.569 154 148 152 
0.09514716 0.1509189 0.581 160 156 159 
0.1109796 0.1576726 0.6070001 169 163 167 
0.1251789 0.1610494 0.62 177 175 182 
0.1389901 0.1633872 0.629 181 209 244 
0.1526645 0.1652055 0.636 187 217 249 
0.167124 0.1675433 0.645 183 210 248 
0.1813704 0.1693616 0.652 178 205 243 
0.1941003 0.1696214 0.6530001 179 204 240 
0.2100314 0.1724787 0.664 180 205 241 
0.2250406 0.174297 0.671 183 208 240 
-0.2887242 0.2129971 0.8150001 28 47 49 
-0.2735186 0.2132584 0.816 36 52 60 
-0.2608038 0.2156105 0.825 24 42 49 
-0.2447753 0.2153492 0.8240001 34 51 56 
-0.2290629 0.2153492 0.8240001 34 48 54 
-0.1498145 0.1654321 0.633 62 80 87 
-0.1360033 0.1633413 0.625 107 130 147 
-0.1222987 0.1609892 0.6160001 131 153 175 
-0.110373 0.1607279 0.615 134 156 180 
-0.09880634 0.1609892 0.6160001 125 150 173 
-0.08706015 0.1609892 0.6160001 127 152 175 
-0.07555848 0.1615119 0.618 108 130 154 
-0.06367096 0.1612506 0.617 116 141 164 
-0.05173744 0.1607279 0.615 108 130 152 
-0.03968503 0.1594211 0.61 95 114 132 
-0.02777732 0.1578531 0.604 107 128 147 
-0.01604458 0.1557623 0.596 85 107 121 
-0.004616947 0.1536715 0.588 91 113 125 
0.006494377 0.1513194 0.5790001 83 94 105 
0.01729275 0.1492286 0.571 62 59 56 
0.02783539 0.1473992 0.564 90 85 83 
0.03845317 0.1468765 0.562 85 79 81 
0.04855723 0.1450471 0.555 78 73 71 
0.05903368 0.1447857 0.554 115 109 113 
0.07022577 0.1460925 0.559 147 143 146 
0.08218731 0.1484446 0.568 154 148 152 
0.09531092 0.1521034 0.582 156 155 157 
0.1109796 0.1586371 0.6070001 170 164 168 
0.124977 0.1617732 0.619 167 165 174 
0.1383272 0.1636027 0.626 180 208 243 
0.1524244 0.1659548 0.6350001 186 216 250 
0.1668649 0.1683069 0.6440001 181 209 244 
0.180814 0.169875 0.65 179 206 244 
0.193803 0.1703977 0.652 179 204 240 
0.2093988 0.1730111 0.6620001 180 205 241 
0.2240344 0.1745792 0.668 186 211 247 
-0.2964251 0.2087705 0.794 26 38 42 
-0.2858901 0.2121887 0.807 30 49 51 
-0.272513 0.2137663 0.813 35 53 60 
-0.2598555 0.2161327 0.822 24 42 49 
-0.2441812 0.2161327 0.822 29 42 51 
-0.2285069 0.2161327 0.822 32 49 54 
-0.1493412 0.1659121 0.631 64 82 89 
-0.1357857 0.1640715 0.624 106 129 146 
-0.1221002 0.1617051 0.615 131 153 175 
-0.1101936 0.1614422 0.614 134 156 180 
-0.09864593 0.1617051 0.615 127 152 175 
-0.08691881 0.1617051 0.615 129 154 177 
-0.07543621 0.162231 0.617 109 134 157 
-0.06356776 0.1619681 0.6160001 120 142 166 
-0.05173744 0.1617051 0.615 108 133 154 
-0.03961997 0.1601275 0.609 93 114 131 
-0.02773133 0.1585499 0.603 109 130 149 
-0.01604458 0.1567094 0.596 86 108 122 
-0.004616947 0.1546059 0.588 92 114 126 
0.006494377 0.1522395 0.5790001 102 118 128 
0.01729275 0.150136 0.571 63 59 60 
0.02783539 0.1482954 0.564 91 85 87 
0.03845317 0.1477696 0.562 88 82 84 
0.04855723 0.145929 0.555 83 78 76 
0.05914024 0.145929 0.555 115 109 113 
0.07022577 0.1469808 0.559 147 143 146 
0.08218731 0.1493472 0.568 154 148 152 
0.09547468 0.1532912 0.583 156 155 157 
0.1109796 0.1596017 0.6070001 171 165 169 
0.1247751 0.1624939 0.618 150 149 160 
0.1381062 0.1643345 0.625 180 208 243 
0.1519443 0.166438 0.633 184 214 248 
0.1663466 0.1688044 0.642 182 207 243 
0.1802577 0.170382 0.648 182 207 243 
0.1932085 0.1709079 0.65 178 205 243 
0.2084499 0.1732743 0.659 180 205 241 
0.2233637 0.1751148 0.666 187 211 250 
-0.2974425 0.2089741 0.79 26 43 46 
-0.2870251 0.2124129 0.803 28 47 51 
-0.2730666 0.213471 0.807 36 52 60 
-0.2611907 0.2163808 0.818 24 42 49 
-0.2464933 0.2171744 0.821 19 36 41 
-0.2305569 0.2169099 0.8200001 33 50 55 
-0.1493412 0.1669148 0.631 73 91 100 
-0.1355681 0.1647986 0.623 105 128 147 
-0.1219016 0.1624179 0.614 131 153 175 
-0.1101936 0.1624179 0.614 135 157 181 
-0.09864593 0.1626824 0.615 128 155 177 
-0.08677748 0.1624179 0.614 130 155 178 
-0.07531395 0.1629469 0.6160001 113 138 161 
-0.06346456 0.1626824 0.615 120 142 164 
-0.05165331 0.1624179 0.614 109 134 155 
-0.03955492 0.1608307 0.608 92 113 130 
-0.02768534 0.1592436 0.6020001 110 131 150 
-0.01601766 0.1573919 0.595 86 110 124 
-0.004616947 0.1555402 0.588 94 116 128 
0.006494377 0.1531595 0.5790001 97 117 128 
0.01729275 0.1510433 0.571 62 61 61 
0.02783539 0.1491916 0.564 92 87 85 
0.03845317 0.1486626 0.562 91 85 87 
0.04864472 0.1470755 0.5560001 86 83 80 
0.05914024 0.1468109 0.555 114 108 112 
0.07035139 0.1481335 0.56 146 142 145 
0.08218731 0.1502497 0.568 153 147 151 
0.09563845 0.1544821 0.5840001 156 155 157 
0.1109796 0.1605662 0.6070001 171 165 169 
0.1245732 0.1632114 0.617 157 160 177 
0.1378852 0.1650631 0.624 184 212 247 
0.1514643 0.1669148 0.631 183 211 246 
0.1660875 0.16956 0.641 181 206 240 
0.1797013 0.1708826 0.646 182 207 243 
0.1929113 0.1716762 0.649 180 207 247 
0.2078173 0.1737924 0.657 181 205 246 
0.2223575 0.1753795 0.663 187 211 250 
-0.3026583 0.2086328 0.784 26 43 44 
-0.2932132 0.2126245 0.799 28 45 48 
-0.2776296 0.2123584 0.798 33 52 56 
-0.2673455 0.2163501 0.813 37 55 62 
-0.2533916 0.2176806 0.818 33 49 57 
-0.2377936 0.2176806 0.818 29 43 49 
-0.2221956 0.2176806 0.818 32 50 57 
-0.1419622 0.1663208 0.625 113 135 157 
-0.1285879 0.164458 0.618 100 120 135 
-0.1156696 0.1628613 0.612 108 129 148 
-0.1045095 0.1636596 0.615 138 165 187 
-0.09248064 0.1631274 0.613 120 142 166 
-0.08105524 0.1636596 0.615 129 154 177 
-0.06921539 0.1633935 0.614 117 139 161 
-0.057601 0.1636596 0.615 119 144 167 
-0.04550092 0.1623291 0.61 93 114 133 
-0.033536 0.1607324 0.604 103 122 140 
-0.02183636 0.1594018 0.599 107 130 149 
-0.01027524 0.1572729 0.591 76 96 109 
0.0009807775 0.155144 0.583 75 97 111 
0.01191095 0.152749 0.574 59 59 61 
0.02261735 0.1511523 0.568 76 71 69 
0.03315381 0.1498218 0.563 98 92 94 
0.04357755 0.1487573 0.559 87 83 84 
0.05394576 0.147959 0.5560001 93 89 92 
0.06466394 0.1482251 0.557 137 131 135 
0.07623122 0.1500879 0.564 148 142 146 
0.08868238 0.1530151 0.575 157 151 155 
0.1029394 0.1580713 0.594 162 158 161 
0.1177287 0.1628613 0.612 177 171 175 
0.1308787 0.1647241 0.619 200 234 254 
0.1440651 0.1663208 0.625 199 233 251 
0.1582291 0.1687158 0.634 180 205 237 
0.1727363 0.1711108 0.643 182 207 243 
0.1855727 0.1716431 0.645 183 207 248 
0.1994058 0.1729736 0.65 178 205 245 
0.2144071 0.1751025 0.6580001 181 208 248 
0.2300584 0.1774976 0.6670001 189 214 248 
-0.3001666 0.2098786 0.784 27 46 50 
-0.2903101 0.2136264 0.798 28 47 51 
-0.2737145 0.2125556 0.794 34 53 57 
-0.2637847 0.2168389 0.8100001 26 44 51 
-0.2501788 0.2184451 0.816 28 45 50 
-0.2343314 0.2181774 0.8150001 31 47 55 
-0.153838 0.1694555 0.633 62 79 82 
-0.139528 0.1667785 0.623 119 141 163 
-0.1260092 0.1646369 0.615 78 95 111 
-0.1135388 0.1635661 0.611 99 117 140 
-0.1023882 0.1643692 0.614 137 164 186 
-0.09053247 0.1641015 0.613 125 147 171 
-0.07910072 0.1646369 0.615 125 150 173 
-0.0671545 0.1641015 0.613 118 140 162 
-0.055556 0.1643692 0.614 118 143 166 
-0.04341946 0.162763 0.608 92 113 132 
-0.03151175 0.1611568 0.6020001 106 127 146 
-0.01986613 0.1598183 0.597 105 128 147 
-0.008382788 0.1579444 0.59 73 93 106 
0.002823879 0.155535 0.581 80 102 116 
0.01371124 0.1533934 0.573 60 60 60 
0.0243795 0.1517872 0.567 80 77 74 
0.03494307 0.1507164 0.563 99 93 95 
0.0453541 0.1496456 0.559 92 88 89 
0.05581298 0.1491102 0.557 104 100 101 
0.06667267 0.1496456 0.559 140 134 138 
0.078162 0.1512518 0.565 149 143 147 
0.09113941 0.1549996 0.5790001 157 151 155 
0.1057096 0.1603537 0.599 165 161 164 
0.1196737 0.1638338 0.612 180 174 180 
0.1328459 0.1657077 0.619 199 233 253 
0.1460514 0.1673139 0.625 191 224 251 
0.160244 0.1697232 0.634 183 206 241 
0.174508 0.1718649 0.642 182 207 243 
0.1876226 0.172668 0.645 184 211 251 
0.2014716 0.1740065 0.65 183 210 252 
0.2164983 0.1761481 0.6580001 184 211 251 
-0.3220642 0.2140866 0.795 28 43 42 
-0.3030443 0.2113937 0.785 28 47 51 
-0.2917453 0.2140866 0.795 28 47 51 
-0.2755421 0.2132787 0.7920001 34 52 59 
-0.2650436 0.2170488 0.8060001 33 49 57 
-0.2509135 0.218126 0.8100001 32 48 56 
-0.2363401 0.2189338 0.813 21 34 43 
-0.2213807 0.2194724 0.8150001 33 51 60 
-0.141508 0.1677685 0.623 113 138 159 
-0.1281718 0.1658835 0.6160001 99 121 135 
-0.1152916 0.1642677 0.61 113 133 155 
-0.1043396 0.1653449 0.614 140 167 189 
-0.09232977 0.1648063 0.612 121 143 167 
-0.08092345 0.1653449 0.614 131 156 179 
-0.06910267 0.1650756 0.613 115 137 161 
-0.05741368 0.1650756 0.613 120 145 170 
-0.04535174 0.1637291 0.608 96 118 140 
-0.03342496 0.1621134 0.6020001 98 121 140 
-0.02176345 0.1607669 0.597 111 134 153 
-0.01025786 0.1588819 0.59 83 107 121 
0.0009807775 0.1569968 0.583 74 96 110 
0.01191095 0.1545732 0.574 59 68 78 
0.02261735 0.1529575 0.568 75 72 69 
0.03315381 0.151611 0.563 102 96 98 
0.0436555 0.1508031 0.56 93 87 89 
0.05404279 0.1499953 0.557 101 97 100 
0.06489612 0.1505338 0.559 136 130 134 
0.07623122 0.1518803 0.564 148 142 146 
0.08883661 0.1551118 0.576 157 151 155 
0.1031127 0.1602283 0.595 163 159 162 
0.1175364 0.164537 0.611 179 173 177 
0.1304558 0.1661527 0.617 200 234 254 
0.1433736 0.1674992 0.622 196 230 252 
0.1574804 0.1699228 0.631 180 203 236 
0.1719304 0.1723465 0.64 185 209 248 
0.1849973 0.1731543 0.643 183 210 250 
0.1987922 0.1745008 0.648 180 207 247 
0.2134296 0.1763858 0.655 183 210 252 
0.2297135 0.179348 0.666 190 217 255 
-0.315416 0.2142664 0.791 28 47 51 
-0.2980547 0.2126411 0.785 28 47 51 
-0.2856103 0.2145373 0.7920001 31 50 54 
-0.2705081 0.2145373 0.7920001 37 55 62 
-0.2599205 0.2183296 0.8060001 21 37 45 
-0.2454616 0.2191422 0.809 27 46 50 
-0.2303195 0.2194131 0.8100001 30 48 55 
-0.1508669 0.1703838 0.629 76 96 109 
-0.1366649 0.167675 0.619 111 136 157 
-0.1234495 0.1657788 0.612 95 116 135 
-0.1114143 0.165237 0.61 116 134 159 
-0.1002733 0.1660497 0.613 136 163 185 
-0.0884398 0.1657788 0.612 129 151 175 
-0.07689532 0.1660497 0.613 126 153 175 
-0.06509996 0.1657788 0.612 120 142 164 
-0.05343005 0.1657788 0.612 115 140 165 
-0.04135071 0.1641535 0.606 92 115 134 
-0.02945104 0.1622574 0.599 105 128 147 
-0.01787852 0.1609029 0.594 112 132 154 
-0.00648566 0.1592777 0.588 72 93 110 
0.004662306 0.1571106 0.58 80 102 116 
0.01550518 0.1549436 0.572 60 63 64 
0.0261353 0.1533183 0.566 85 82 79 
0.03673233 0.1525057 0.563 101 95 97 
0.04713065 0.1514221 0.559 96 92 93 
0.05768655 0.1511513 0.558 114 110 113 
0.06869412 0.1519639 0.561 143 137 141 
0.08038217 0.1538601 0.568 150 144 148 
0.09346128 0.1576524 0.582 157 153 156 
0.1081522 0.16307 0.6020001 170 164 168 
0.1216187 0.1657788 0.612 177 188 209 
0.1345954 0.1674041 0.618 179 209 243 
0.147564 0.1687585 0.623 184 211 249 
0.161747 0.1711964 0.632 183 206 241 
0.1762733 0.1736343 0.641 183 210 250 
0.1893784 0.174447 0.6440001 186 213 253 
0.202911 0.1755305 0.648 183 212 251 
0.2182572 0.1779684 0.657 185 212 254 
0.234298 0.1806772 0.6670001 196 221 253 
-0.3125066 0.2152508 0.79 26 47 53 
-0.2955599 0.2138885 0.785 30 48 55 
-0.2830932 0.2157958 0.7920001 32 51 55 
-0.2686678 0.2163407 0.794 35 53 60 
-0.2570397 0.2193379 0.8050001 27 40 49 
-0.2419898 0.2196103 0.8060001 30 48 55 
-0.2269018 0.2198828 0.807 30 51 59 
-0.1481578 0.1705659 0.626 98 120 134 
-0.1342625 0.1681136 0.617 107 130 149 
-0.1211075 0.1662063 0.61 129 156 178 
-0.1094757 0.1662063 0.61 135 160 183 
-0.09816474 0.1667513 0.612 133 160 182 
-0.08635348 0.1664788 0.611 134 159 182 
-0.07494716 0.1670237 0.613 123 150 172 
-0.06305178 0.1664788 0.611 122 144 166 
-0.05131681 0.1662063 0.61 114 141 163 
-0.03929469 0.1645715 0.604 90 113 132 
-0.02745539 0.1626642 0.597 107 130 149 
-0.0159369 0.1613019 0.592 107 129 151 
-0.004609095 0.1599395 0.587 89 109 124 
0.006494377 0.1577598 0.5790001 81 101 116 
0.01729275 0.15558 0.571 62 62 62 
0.02788474 0.1539452 0.565 90 87 84 
0.03845317 0.1531278 0.562 101 97 98 
0.04890719 0.1523104 0.559 101 97 98 
0.05956648 0.1523104 0.559 122 118 121 
0.07060266 0.1531278 0.562 147 141 145 
0.08247671 0.1553076 0.5700001 151 145 149 
0.09580222 0.1593946 0.585 156 155 157 
0.1106139 0.164844 0.605 173 167 171 
0.1237656 0.1670237 0.613 194 225 250 
0.1363385 0.1681136 0.617 193 221 255 
0.1493039 0.169476 0.622 181 204 239 
0.1640147 0.1724731 0.633 183 208 242 
0.1780323 0.1743804 0.64 185 212 252 
0.1911278 0.1751978 0.643 186 213 253 
0.2049704 0.1765602 0.648 184 211 251 
0.2203452 0.1790124 0.657 187 214 254 
-0.3300586 0.2181505 0.7960001 20 37 38 
-0.3125066 0.2165062 0.79 26 47 53 
-0.2951834 0.2148618 0.784 30 48 55 
-0.2823783 0.2165062 0.79 32 51 55 
-0.267991 0.2170543 0.7920001 35 53 60 
-0.2560818 0.2197949 0.802 28 41 50 
-0.2413893 0.220343 0.804 28 46 53 
-0.2266206 0.2208911 0.8060001 31 49 58 
-0.1479212 0.1712865 0.625 96 118 132 
-0.1340449 0.16882 0.6160001 108 131 150 
-0.1211075 0.1671757 0.61 130 157 179 
-0.1092962 0.1669016 0.609 134 161 183 
-0.09816474 0.1677238 0.612 134 161 183 
-0.08635348 0.1674497 0.611 134 159 182 
-0.0748249 0.1677238 0.612 124 149 172 
-0.06294859 0.1671757 0.61 122 144 166 
-0.05131681 0.1671757 0.61 115 142 164 
-0.03922963 0.1652572 0.603 92 115 134 
-0.02745539 0.1636129 0.597 109 130 149 
-0.0159369 0.1622426 0.592 111 133 155 
-0.004601243 0.1605982 0.586 78 97 115 
0.006494377 0.1586798 0.5790001 81 101 116 
0.01729275 0.1564874 0.571 62 65 68 
0.02793409 0.1551171 0.566 90 87 84 
0.0385216 0.1542949 0.563 102 101 101 
0.04890719 0.1531987 0.559 104 100 101 
0.05967304 0.1534727 0.56 122 118 121 
0.07060266 0.1540208 0.562 147 141 145 
0.08247671 0.1562133 0.5700001 151 145 149 
0.09580222 0.1603242 0.585 157 153 156 
0.1104311 0.1655313 0.604 173 167 171 
0.1235637 0.1677238 0.612 196 227 252 
0.1361175 0.16882 0.6160001 190 218 251 
0.1488238 0.1699162 0.62 180 203 238 
0.1634965 0.1729309 0.631 185 210 244 
0.1777541 0.1751233 0.6390001 187 214 254 
0.1908306 0.1759455 0.642 187 214 252 
0.2043378 0.1770418 0.646 185 212 252 
0.2200099 0.1797823 0.656 187 214 254 
0.2353544 0.1819748 0.664 193 221 252 
-0.3150173 0.2177615 0.79 31 50 54 
-0.2972953 0.215832 0.7830001 28 46 53 
-0.2841678 0.2172102 0.788 32 50 57 
-0.2698249 0.2177615 0.79 37 55 62 
-0.2576632 0.2202424 0.799 20 36 44 
-0.2433377 0.2210693 0.802 29 46 51 
-0.2283291 0.2213449 0.803 28 46 55 
-0.1501473 0.1725553 0.626 90 110 121 
-0.1360026 0.1697989 0.6160001 111 136 157 
-0.1230461 0.168145 0.61 88 108 130 
-0.1108664 0.167318 0.6070001 108 130 152 
-0.09994613 0.1684206 0.611 138 168 189 
-0.08800627 0.1678693 0.609 128 150 174 
-0.07676988 0.1686963 0.612 130 155 178 
-0.06488722 0.168145 0.61 118 140 162 
-0.05316814 0.1678693 0.609 119 146 168 
-0.04121425 0.1664911 0.604 97 119 141 
-0.02935271 0.1645616 0.597 102 123 142 
-0.01781833 0.1631833 0.592 115 137 159 
-0.00647463 0.1618051 0.587 84 105 122 
0.004662306 0.1598756 0.58 82 104 118 
0.01550518 0.1576704 0.572 113 131 140 
0.0261353 0.1560165 0.566 82 79 76 
0.03679758 0.1554652 0.564 104 103 103 
0.04721496 0.1543626 0.56 101 97 98 
0.05789331 0.1543626 0.56 119 115 118 
0.06881657 0.1549139 0.562 141 137 140 
0.08052368 0.1568434 0.569 151 145 149 
0.09346128 0.1604268 0.582 157 153 156 
0.1077929 0.1653885 0.6 170 164 168 
0.1212213 0.168145 0.61 197 226 252 
0.1337242 0.1692476 0.614 189 214 250 
0.1463797 0.1703502 0.618 183 206 243 
0.1602115 0.1725553 0.626 184 207 242 
0.1748983 0.1753118 0.636 186 215 254 
0.1882021 0.1764144 0.64 191 218 255 
0.2016585 0.177517 0.6440001 184 213 252 
0.2169284 0.1799978 0.6530001 185 212 252 
0.2325416 0.1824787 0.6620001 192 222 255 
-0.3147144 0.2170762 0.7830001 32 51 55 
-0.2997838 0.2170762 0.7830001 29 50 58 
-0.2855807 0.2176307 0.785 31 47 55 
-0.2716462 0.2184624 0.788 35 53 60 
-0.2592255 0.2206803 0.7960001 19 36 41 
-0.2452733 0.2217892 0.8 29 45 53 
-0.2303061 0.2220665 0.8010001 19 35 43 
-0.1499075 0.1732728 0.625 92 112 123 
-0.1360026 0.1707777 0.6160001 111 136 157 
-0.1228444 0.1688371 0.609 88 108 130 
-0.1108664 0.1682826 0.6070001 106 128 150 
-0.09978256 0.1691143 0.61 139 169 190 
-0.08786176 0.1685598 0.608 125 150 173 
-0.07664444 0.1693915 0.611 131 156 179 
-0.06467447 0.1685598 0.608 117 139 161 
-0.05308083 0.1685598 0.608 121 148 170 
-0.04114601 0.1671736 0.603 98 120 142 
-0.02935271 0.1655102 0.597 99 122 141 
-0.01778823 0.1638468 0.591 118 140 162 
-0.0064636 0.1624606 0.586 83 106 123 
0.004662306 0.1607972 0.58 91 112 129 
0.01550518 0.1585793 0.572 119 141 153 
0.0261353 0.1569159 0.566 80 77 74 
0.03679758 0.1563614 0.564 107 103 104 
0.04729927 0.1555297 0.561 101 97 98 
0.05789331 0.1552525 0.56 120 116 119 
0.06893902 0.1560842 0.563 142 138 141 
0.08066521 0.1580248 0.5700001 150 146 149 
0.09362186 0.1616289 0.583 157 153 156 
0.1076133 0.1660647 0.599 172 166 170 
0.1212213 0.1691143 0.61 194 227 252 
0.1335064 0.169946 0.613 193 218 254 
0.1461428 0.1710549 0.617 180 203 240 
0.1599555 0.1732728 0.625 186 209 246 
0.1746233 0.1760452 0.6350001 187 216 253 
0.1879081 0.1771542 0.6390001 191 221 255 
0.2010322 0.1779858 0.642 184 213 250 
0.2165962 0.1807582 0.652 184 213 252 
0.2325416 0.1835306 0.6620001 192 222 254 
-0.3155824 0.2172051 0.779 32 51 55 
-0.3011141 0.2174839 0.78 29 50 58 
-0.2866076 0.2177628 0.781 29 45 53 
-0.2738026 0.2194357 0.7870001 34 52 59 
-0.2604399 0.2208299 0.7920001 20 37 42 
-0.2471962 0.2225028 0.798 29 46 51 
-0.2322703 0.2227816 0.799 24 40 48 
-0.1521368 0.1745448 0.626 77 99 109 
-0.1379603 0.1717566 0.6160001 122 147 172 
-0.1249847 0.1700836 0.61 87 104 120 
-0.1126097 0.1689683 0.606 101 120 140 
-0.1017212 0.1700836 0.61 142 172 193 
-0.08979404 0.169526 0.608 123 148 171 
-0.07845763 0.1700836 0.61 133 160 182 
-0.06660675 0.169526 0.608 115 137 159 
-0.05492263 0.1692471 0.6070001 123 150 172 
-0.04313381 0.1684106 0.604 103 128 151 
-0.03130237 0.1667377 0.598 94 117 136 
-0.01966647 0.1647859 0.591 117 142 163 
-0.008340163 0.1636706 0.587 97 120 139 
0.002823879 0.1619977 0.581 108 131 148 
0.01371124 0.159767 0.573 92 113 130 
0.0243795 0.1580941 0.567 76 73 70 
0.03500514 0.1572576 0.564 107 103 104 
0.0455975 0.1567 0.562 103 99 100 
0.05611359 0.1561423 0.56 119 115 118 
0.06714976 0.1569788 0.563 140 136 139 
0.07857702 0.1583729 0.568 149 145 148 
0.09129682 0.1617188 0.58 156 152 155 
0.1051802 0.16618 0.596 169 163 167 
0.118696 0.1692471 0.6070001 193 220 244 
0.1313436 0.1706412 0.612 185 209 248 
0.1437146 0.1714777 0.615 182 206 245 
0.1574637 0.1737083 0.623 182 206 245 
0.1717898 0.1762177 0.632 187 216 253 
0.1855864 0.1778907 0.638 190 220 254 
0.198682 0.1787272 0.641 184 213 250 
0.213208 0.180679 0.648 183 212 251 
0.2293934 0.1837461 0.659 192 222 255 
-0.3168333 0.2176017 0.776 31 50 54 
-0.3016469 0.2173213 0.775 28 49 55 
-0.2868688 0.2173213 0.775 28 44 52 
-0.2756016 0.2201255 0.785 33 51 58 
-0.2619609 0.2212471 0.789 24 41 46 
-0.2491065 0.2232101 0.7960001 29 46 51 
-0.2342218 0.2234905 0.7970001 28 44 52 
-0.1518937 0.1752591 0.625 89 113 125 
-0.1377363 0.172455 0.615 123 148 171 
-0.1247799 0.1707725 0.609 89 106 122 
-0.1124238 0.1696508 0.605 103 122 142 
-0.1013877 0.1704921 0.608 146 173 195 
-0.08964635 0.1702117 0.6070001 123 148 171 
-0.07832901 0.1707725 0.609 134 161 183 
-0.06660675 0.1704921 0.608 115 137 159 
-0.05483214 0.1699313 0.606 124 151 173 
-0.04313381 0.1693704 0.604 104 129 150 
-0.03125002 0.1674075 0.597 94 117 136 
-0.01966647 0.165725 0.591 116 141 164 
-0.008340163 0.1646034 0.587 101 124 143 
0.002823879 0.1629209 0.581 107 130 147 
0.01371124 0.1606776 0.573 88 110 124 
0.0243795 0.1589951 0.567 74 73 73 
0.0350672 0.1584343 0.565 108 104 105 
0.0455975 0.157593 0.562 104 100 101 
0.05611359 0.1570322 0.56 119 115 118 
0.06714976 0.1578734 0.563 140 136 139 
0.07871535 0.1595559 0.569 149 145 148 
0.09145422 0.1629209 0.581 155 151 154 
0.1050037 0.1668467 0.595 170 164 168 
0.118696 0.1702117 0.6070001 194 223 249 
0.131129 0.1713333 0.611 185 212 250 
0.1432472 0.1718942 0.613 181 205 244 
0.1569582 0.1741375 0.6210001 185 209 248 
0.1712461 0.1766612 0.6300001 187 216 253 
0.1852955 0.1786241 0.637 191 221 255 
0.198062 0.179185 0.6390001 184 213 250 
0.213208 0.1817087 0.648 183 212 251 
0.2290453 0.1845128 0.6580001 191 221 255 
-0.3147918 0.2174248 0.771 31 50 54 
-0.2997008 0.2171428 0.77 31 49 56 
-0.285018 0.2171428 0.77 28 44 52 
-0.2745483 0.2205269 0.7820001 33 51 58 
-0.2612968 0.2219369 0.7870001 22 39 44 
-0.2487935 0.2241929 0.795 29 46 51 
-0.2336341 0.2241929 0.795 27 43 51 
-0.1538801 0.1762523 0.625 79 101 115 
-0.139918 0.1737143 0.6160001 124 151 175 
-0.1267153 0.1717402 0.609 102 123 140 
-0.1145356 0.1708942 0.606 127 150 169 
-0.10315 0.1711762 0.6070001 151 178 200 
-0.09142457 0.1708942 0.606 129 156 178 
-0.08000087 0.1711762 0.6070001 141 168 190 
-0.0684263 0.1711762 0.6070001 119 141 165 
-0.05675806 0.1708942 0.606 124 151 173 
-0.04505337 0.1703302 0.604 113 138 161 
-0.03320286 0.1686382 0.598 94 117 136 
-0.02154472 0.1666642 0.591 111 136 157 
-0.0102057 0.1655361 0.587 117 142 165 
0.0009774129 0.1638441 0.581 92 115 134 
0.0118902 0.1615881 0.573 85 108 125 
0.02261735 0.1601781 0.568 66 72 85 
0.03327159 0.1593321 0.565 105 101 102 
0.04381142 0.1584861 0.562 104 100 101 
0.05433386 0.157922 0.56 115 111 114 
0.06536049 0.1587681 0.563 136 132 135 
0.07677186 0.1601781 0.568 147 143 146 
0.08929931 0.1632801 0.5790001 154 150 153 
0.1027661 0.1672282 0.5930001 165 159 163 
0.1161898 0.1703302 0.604 192 213 244 
0.1287643 0.1717402 0.609 183 208 244 
0.1410686 0.1725862 0.612 186 210 249 
0.1544855 0.1745603 0.619 184 211 251 
0.1681694 0.1765343 0.626 189 218 255 
0.1826956 0.1790723 0.6350001 186 216 250 
0.1957245 0.1799183 0.638 183 212 249 
0.2101711 0.1818924 0.645 184 213 252 
0.2262643 0.1849944 0.656 190 220 254 
0.2420491 0.1875324 0.665 149 170 199 
-0.3014304 0.2160976 0.762 32 51 55 
-0.2876532 0.2166648 0.7640001 32 48 56 
-0.2777316 0.2203515 0.777 34 52 59 
-0.2649457 0.2220531 0.7830001 28 45 50 
-0.2528887 0.2246054 0.7920001 29 45 53 
-0.238387 0.2251726 0.794 32 48 56 
-0.1628609 0.1783798 0.629 26 44 51 
-0.1491879 0.1763947 0.622 94 116 130 
-0.1353402 0.1738423 0.613 115 140 163 
-0.122441 0.1721408 0.6070001 85 101 122 
-0.1103185 0.17129 0.604 103 121 144 
-0.09912825 0.1718572 0.606 147 174 196 
-0.08742823 0.1715736 0.605 124 149 172 
-0.07626811 0.1724244 0.608 132 159 181 
-0.06446172 0.1718572 0.606 114 136 160 
-0.05281892 0.1715736 0.605 124 151 175 
-0.04107778 0.1707228 0.6020001 107 129 151 
-0.02925438 0.1687377 0.595 93 116 135 
-0.01775813 0.1673197 0.59 116 141 164 
-0.00644154 0.1656182 0.5840001 101 127 145 
0.004654267 0.1642002 0.5790001 108 134 150 
0.01547807 0.1619314 0.571 85 108 125 
0.0261353 0.1605135 0.566 77 79 85 
0.03679758 0.1599463 0.564 112 108 109 
0.04729927 0.1590955 0.561 107 101 103 
0.05810007 0.1593791 0.562 121 117 120 
0.06906147 0.1599463 0.564 139 135 138 
0.08094824 0.162215 0.572 153 147 151 
0.09362186 0.1653346 0.583 157 153 156 
0.1068947 0.1687377 0.595 176 170 176 
0.1204264 0.1718572 0.606 196 229 254 
0.1326353 0.172708 0.609 188 220 250 
0.1449585 0.1735587 0.612 180 205 241 
0.1586759 0.1758275 0.62 188 215 253 
0.1721483 0.177529 0.626 191 221 255 
0.1867318 0.1800814 0.6350001 193 223 255 
0.1997797 0.1809321 0.638 185 214 253 
0.2152674 0.1837681 0.648 185 214 253 
0.2307853 0.1863204 0.657 193 223 255 
-0.3103006 0.2167381 0.7600001 32 49 54 
-0.2954193 0.216453 0.7590001 32 50 57 
-0.2820568 0.2173085 0.762 28 44 52 
-0.273144 0.2218714 0.7780001 31 49 56 
-0.2599688 0.2232973 0.7830001 22 39 44 
-0.2484806 0.2264343 0.794 28 46 53 
-0.2330463 0.2261491 0.793 25 43 50 
-0.1578526 0.1782386 0.625 57 79 82 
-0.1440669 0.1759571 0.617 120 145 168 
-0.1308006 0.1739609 0.61 111 136 159 
-0.1181921 0.172535 0.605 144 171 193 
-0.1063031 0.1719646 0.603 148 175 197 
-0.09511919 0.172535 0.605 141 171 192 
-0.08358275 0.172535 0.605 144 169 192 
-0.07228449 0.1731053 0.6070001 132 159 181 
-0.06050988 0.172535 0.605 129 154 177 
-0.04889249 0.1722498 0.604 124 151 175 
-0.03712761 0.1711091 0.6 101 126 147 
-0.02534402 0.1688276 0.592 103 124 143 
-0.01396051 0.1676869 0.588 122 147 170 
-0.002720192 0.1659758 0.582 93 116 135 
0.008291302 0.1642647 0.576 117 143 159 
0.01907398 0.1625536 0.5700001 98 119 136 
0.02973289 0.1614129 0.566 88 88 90 
0.04031086 0.1605573 0.563 116 110 112 
0.05086508 0.159987 0.561 112 106 110 
0.06178198 0.1605573 0.563 128 124 127 
0.07290395 0.1614129 0.566 143 139 142 
0.08517546 0.1642647 0.576 155 151 154 
0.09799528 0.1674017 0.587 159 153 157 
0.1112346 0.1705387 0.598 161 173 189 
0.1242782 0.1728201 0.606 196 229 254 
0.1365062 0.1736757 0.609 195 223 254 
0.1490917 0.1748164 0.613 183 207 246 
0.162879 0.1770979 0.6210001 190 219 255 
0.1764087 0.178809 0.627 190 220 254 
0.1904675 0.1808052 0.634 187 217 251 
0.2044739 0.1825163 0.64 187 214 254 
0.2204019 0.1856533 0.651 187 216 253 
0.2363918 0.1885051 0.661 194 224 254 
-0.3026564 0.2159384 0.753 33 49 57 
-0.2894464 0.2167987 0.756 32 50 57 
-0.2786686 0.2196664 0.766 32 50 57 
-0.2678542 0.2228209 0.777 31 47 55 
-0.2559689 0.2254018 0.786 26 42 50 
-0.2428206 0.2271225 0.7920001 28 46 53 
-0.1693949 0.1809524 0.631 28 44 54 
-0.1553676 0.1786582 0.623 62 82 93 
-0.1416454 0.176364 0.615 126 153 177 
-0.1284395 0.1743566 0.608 112 134 156 
-0.1160771 0.1732095 0.604 143 170 190 
-0.1042136 0.172636 0.6020001 153 180 202 
-0.09304241 0.1732095 0.604 138 168 189 
-0.08166001 0.1734963 0.605 147 174 196 
-0.07023948 0.1737831 0.606 129 156 180 
-0.0584903 0.1732095 0.604 130 155 178 
-0.04689516 0.1729228 0.603 122 149 173 
-0.03510335 0.1714889 0.598 104 129 150 
-0.02342297 0.1694815 0.591 107 128 147 
-0.01205067 0.1680477 0.586 124 149 172 
-0.0008690526 0.1666138 0.581 89 112 131 
0.01010431 0.1648932 0.575 119 146 166 
0.0208122 0.1628858 0.568 102 123 142 
0.03153168 0.1623123 0.566 96 96 100 
0.04202534 0.1611652 0.562 118 112 114 
0.05264798 0.1608784 0.561 112 108 111 
0.06368415 0.1617387 0.564 129 125 128 
0.07496671 0.1628858 0.568 146 142 145 
0.08745919 0.1660403 0.5790001 156 150 154 
0.1002011 0.168908 0.589 165 159 163 
0.1135135 0.1720625 0.6 195 220 252 
0.1259959 0.1734963 0.605 181 205 244 
0.1382143 0.1743566 0.608 181 205 244 
0.1512863 0.1760772 0.614 184 211 251 
0.1648526 0.1780847 0.6210001 191 221 255 
0.1784013 0.1798053 0.627 190 220 254 
0.1924824 0.1818127 0.634 186 215 252 
0.2071532 0.1841068 0.642 185 214 253 
0.2228125 0.1869745 0.652 189 219 253 
0.2384925 0.1895555 0.661 194 226 255 
-0.3014506 0.2162699 0.7500001 33 49 57 
-0.2882978 0.217135 0.753 32 50 57 
-0.2786686 0.2208836 0.766 33 51 58 
-0.2675094 0.2237672 0.776 28 44 52 
-0.2556432 0.2263625 0.785 27 43 51 
-0.242514 0.2280926 0.791 28 46 53 
-0.1673895 0.1819551 0.631 29 45 53 
-0.1528952 0.1790715 0.6210001 95 121 139 
-0.1392366 0.1767646 0.613 129 156 180 
-0.1260911 0.1747461 0.606 103 126 143 
-0.1139686 0.173881 0.603 132 154 176 
-0.1021304 0.1733043 0.601 153 180 202 
-0.09097198 0.173881 0.603 131 158 180 
-0.07973727 0.1744577 0.605 146 173 195 
-0.06820083 0.1744577 0.605 123 148 173 
-0.05657074 0.1741693 0.604 126 151 174 
-0.04490419 0.1735926 0.6020001 117 142 167 
-0.03309182 0.1718625 0.596 106 131 152 
-0.02150827 0.1701323 0.59 106 131 152 
-0.01017093 0.1686905 0.585 124 151 173 
0.0009757307 0.1672487 0.58 89 112 129 
0.0118902 0.1652302 0.573 105 128 147 
0.02261735 0.1637884 0.568 102 122 144 
0.03327159 0.1629233 0.565 109 107 114 
0.04381142 0.1620582 0.562 117 113 114 
0.05452791 0.1620582 0.562 114 110 111 
0.06547659 0.1626349 0.564 135 129 133 
0.07717735 0.1646535 0.571 149 145 148 
0.08945353 0.1672487 0.58 157 151 155 
0.1022462 0.1701323 0.59 171 167 172 
0.1156127 0.1733043 0.601 195 223 254 
0.1279186 0.1744577 0.605 191 218 255 
0.1401466 0.1753228 0.608 180 205 239 
0.1534872 0.1773413 0.615 186 213 253 
0.1665575 0.1787831 0.62 187 217 251 
0.180394 0.1808016 0.627 190 220 254 
0.1944973 0.1828201 0.634 183 212 251 
0.2098453 0.1857037 0.6440001 185 214 253 
0.2252296 0.188299 0.6530001 190 220 254 
0.2409572 0.1908942 0.6620001 192 225 252 
-0.3010486 0.2171717 0.749 33 49 57 
-0.287915 0.2180415 0.752 33 51 58 
-0.2783048 0.2218109 0.765 33 51 58 
-0.26682 0.2244204 0.774 28 44 52 
-0.2546662 0.22674 0.7820001 26 44 51 
-0.2415942 0.2284797 0.788 28 46 53 
-0.1673895 0.1829577 0.631 31 47 57 
-0.1524028 0.1794783 0.619 95 121 139 
-0.1392366 0.1777387 0.613 130 160 183 
-0.1260911 0.175709 0.606 104 127 144 
-0.1137796 0.1745492 0.6020001 130 155 176 
-0.1017905 0.1736794 0.599 154 181 203 
-0.09082112 0.1745492 0.6020001 132 159 181 
-0.07960548 0.1751291 0.604 146 173 195 
-0.06820083 0.1754191 0.605 124 149 174 
-0.05647708 0.1748392 0.603 127 152 175 
-0.04482959 0.1742593 0.601 117 142 167 
-0.03303629 0.1725196 0.595 112 134 156 
-0.02147181 0.1707799 0.589 105 131 149 
-0.01015354 0.1693301 0.5840001 124 154 177 
0.0009757307 0.1681703 0.58 92 118 136 
0.0118902 0.1661407 0.573 112 137 158 
0.02261735 0.164691 0.568 100 121 138 
0.03327159 0.1638211 0.565 108 110 120 
0.04381142 0.1629513 0.562 122 118 121 
0.05452791 0.1629513 0.562 114 110 113 
0.06547659 0.1635312 0.564 133 129 132 
0.07717735 0.1655608 0.571 150 146 149 
0.08945353 0.1681703 0.58 159 153 157 
0.102073 0.1707799 0.589 172 168 173 
0.1154203 0.1739693 0.6 195 224 252 
0.1277072 0.1751291 0.604 188 216 251 
0.139916 0.175999 0.6070001 179 204 238 
0.1532376 0.1780286 0.614 187 214 254 
0.1662889 0.1794783 0.619 187 217 251 
0.1801063 0.181508 0.626 190 220 254 
0.1938838 0.1832477 0.632 183 212 249 
0.2095194 0.1864371 0.643 186 215 252 
0.2248847 0.1890467 0.652 191 221 255 
0.2405932 0.1916562 0.661 192 225 252 
-0.3006467 0.2180703 0.748 32 48 56 
-0.287915 0.2192365 0.752 33 51 58 
-0.2783048 0.2230265 0.765 32 50 57 
-0.2664752 0.2253588 0.7730001 27 44 49 
-0.2543406 0.2276911 0.781 27 45 52 
-0.2412876 0.2294403 0.7870001 27 45 52 
-0.1696634 0.1842519 0.632 28 46 55 
-0.1546194 0.1807535 0.62 64 81 95 
-0.1411847 0.1787127 0.613 128 158 181 
-0.128017 0.176672 0.606 110 135 158 
-0.1156928 0.1755058 0.6020001 143 170 192 
-0.1035211 0.1743397 0.598 155 182 204 
-0.09258027 0.1752143 0.601 141 168 190 
-0.08139007 0.1757974 0.603 147 174 196 
-0.07012358 0.1763804 0.605 130 160 181 
-0.05839346 0.1757974 0.603 127 152 175 
-0.04673962 0.1752143 0.601 125 152 176 
-0.03492725 0.173465 0.595 110 135 158 
-0.02338333 0.1720074 0.59 101 124 143 
-0.01200954 0.1702581 0.5840001 123 153 174 
-0.0008675568 0.169092 0.58 105 130 151 
0.01010431 0.1676343 0.575 114 136 158 
0.02084884 0.1658851 0.569 92 113 130 
0.03153168 0.1650105 0.566 155 177 191 
0.04210012 0.1641358 0.563 132 131 135 
0.05274183 0.1638443 0.562 115 111 114 
0.06368415 0.1644274 0.564 127 123 126 
0.07523069 0.1661766 0.5700001 145 141 144 
0.08745919 0.1688004 0.5790001 158 154 157 
0.09986081 0.1711327 0.587 171 167 170 
0.1129459 0.1740481 0.597 196 226 255 
0.1253711 0.1755058 0.6020001 188 213 249 
0.1377596 0.176672 0.606 178 202 241 
0.1510399 0.1787127 0.613 185 212 252 
0.1640562 0.1801704 0.618 188 220 254 
0.1775477 0.1819196 0.624 190 220 254 
0.1912681 0.1836689 0.6300001 185 214 251 
0.2061852 0.1862927 0.6390001 187 216 253 
0.2221291 0.1894996 0.65 190 219 255 
0.2377709 0.1921235 0.659 195 228 255 
-0.3030239 0.219259 0.748 32 48 56 
-0.2903049 0.2204315 0.752 33 51 58 
-0.2785342 0.2224834 0.7590001 32 50 59 
-0.2682361 0.2260009 0.771 27 44 49 
-0.2551785 0.2274665 0.776 25 43 50 
-0.2431692 0.2301047 0.785 27 45 52 
-0.1722151 0.1858425 0.634 26 44 53 
-0.1568424 0.1820318 0.6210001 76 96 109 
-0.1431329 0.1796868 0.613 121 148 172 
-0.1299429 0.1776349 0.606 118 143 166 
-0.117606 0.1764624 0.6020001 140 167 189 
-0.1054216 0.1752899 0.598 145 172 194 
-0.09433308 0.1758762 0.6 146 176 197 
-0.0831683 0.1764624 0.6020001 140 167 189 
-0.07192723 0.1770487 0.604 137 167 188 
-0.06030985 0.1767556 0.603 124 149 174 
-0.04864965 0.1761693 0.601 132 159 183 
-0.03688009 0.1747037 0.596 105 130 153 
-0.0252584 0.1729449 0.59 96 121 142 
-0.01386554 0.1711861 0.5840001 123 148 171 
-0.002715518 0.1703068 0.581 117 142 167 
0.008291302 0.1688411 0.576 106 127 146 
0.01907398 0.1670824 0.5700001 90 113 130 
0.02973289 0.1659099 0.566 141 164 183 
0.04031086 0.1650305 0.563 135 137 145 
0.05104641 0.1650305 0.563 124 120 123 
0.06189171 0.1653236 0.564 125 121 124 
0.07316156 0.1664961 0.568 142 138 141 
0.08532333 0.1691342 0.577 160 156 159 
0.09749446 0.1711861 0.5840001 170 169 171 
0.1104906 0.1741174 0.594 194 224 254 
0.1230477 0.1758762 0.6 181 204 241 
0.1356096 0.1773418 0.605 181 205 246 
0.1488485 0.1793937 0.612 185 214 253 
0.1615676 0.1805662 0.6160001 188 220 254 
0.1752832 0.1826181 0.623 191 221 255 
0.188665 0.1840837 0.628 186 215 252 
0.2035154 0.1867219 0.637 189 218 255 
0.2193862 0.1899463 0.648 189 218 255 
0.2349612 0.1925844 0.657 196 227 254 
-0.3090127 0.2213317 0.751 25 41 49 
-0.2939075 0.2207423 0.749 32 50 57 
-0.2811185 0.2219211 0.753 31 49 58 
-0.2724282 0.2266366 0.7690001 27 43 51 
-0.2587701 0.2275207 0.772 26 42 50 
-0.2472105 0.2304679 0.7820001 28 46 55 
-0.2322989 0.2304679 0.7820001 22 39 44 
-0.1618253 0.1841975 0.625 57 80 87 
-0.1470292 0.1806609 0.613 98 124 142 
-0.1342363 0.1791873 0.608 124 154 177 
-0.1214324 0.177419 0.6020001 85 106 123 
-0.1092226 0.1762402 0.598 100 118 141 
-0.09781963 0.1762402 0.598 153 183 206 
-0.08670568 0.1768296 0.6 123 150 174 
-0.07564091 0.1777137 0.603 142 172 193 
-0.06414261 0.1777137 0.603 116 141 166 
-0.0523824 0.1768296 0.6 130 157 181 
-0.04073659 0.1759454 0.597 106 131 154 
-0.02905771 0.1741771 0.591 112 134 156 
-0.01763774 0.1727036 0.586 117 139 161 
-0.006419479 0.1715247 0.582 131 158 182 
0.00463819 0.1700511 0.577 100 123 142 
0.01550518 0.1685775 0.572 115 145 164 
0.02618148 0.167104 0.567 105 126 145 
0.03679758 0.1662198 0.564 164 188 200 
0.0474679 0.1659251 0.563 133 135 141 
0.05830684 0.1662198 0.564 124 120 123 
0.06942882 0.167104 0.567 138 134 137 
0.08123127 0.169167 0.574 158 154 157 
0.09314011 0.1709353 0.58 171 167 172 
0.1059964 0.1738824 0.59 192 220 251 
0.1188366 0.1762402 0.598 190 218 253 
0.1311107 0.177419 0.6020001 188 216 251 
0.144248 0.179482 0.609 185 212 252 
0.1571403 0.1809556 0.614 189 221 255 
0.1704983 0.1827239 0.62 190 220 254 
0.1840852 0.1844922 0.626 188 220 254 
0.198214 0.1865552 0.633 187 216 253 
0.2142708 0.1900918 0.645 187 216 253 
0.2293802 0.1924495 0.6530001 193 223 253 
0.2459056 0.1956914 0.664 192 221 249 
-0.2998429 0.2210435 0.7460001 30 48 55 
-0.287915 0.2228214 0.752 33 51 58 
-0.2775772 0.2260807 0.763 31 49 58 
-0.2650963 0.2278586 0.7690001 26 43 48 
-0.2520609 0.2293401 0.774 28 46 53 
-0.2394481 0.2314142 0.781 24 42 51 
-0.1727584 0.18845 0.636 26 44 53 
-0.1565898 0.1837091 0.62 77 99 113 
-0.1424324 0.180746 0.61 116 143 167 
-0.1297285 0.1792645 0.605 118 143 166 
-0.1172153 0.177783 0.6 139 166 188 
-0.105069 0.1765978 0.596 146 173 195 
-0.09401864 0.1771904 0.598 149 179 200 
-0.08289199 0.177783 0.6 137 164 188 
-0.07180814 0.1786719 0.603 138 168 189 
-0.06010981 0.1780793 0.601 118 143 168 
-0.04848775 0.1774867 0.599 132 159 183 
-0.03675633 0.1760052 0.594 106 131 154 
-0.02521559 0.1745237 0.589 106 131 152 
-0.0138418 0.1727458 0.583 122 149 171 
-0.002710844 0.1718569 0.58 125 152 176 
0.008276908 0.1703754 0.575 83 105 127 
0.01907398 0.1688939 0.5700001 110 135 156 
0.02973289 0.1677087 0.566 113 138 161 
0.04038245 0.167116 0.564 162 186 198 
0.05113708 0.167116 0.564 139 138 145 
0.06189171 0.167116 0.564 130 128 135 
0.07341918 0.1688939 0.5700001 145 141 144 
0.08517546 0.1706717 0.576 167 163 166 
0.09716057 0.1724495 0.582 162 164 174 
0.1103045 0.1757089 0.5930001 192 224 254 
0.1226376 0.1771904 0.598 190 214 253 
0.1351613 0.1786719 0.603 183 207 250 
0.1486053 0.1810424 0.611 187 218 255 
0.1613053 0.1822276 0.615 189 221 255 
0.1750019 0.1843017 0.622 191 221 255 
0.1883646 0.1857833 0.627 183 214 251 
0.2028765 0.1881537 0.6350001 190 219 255 
0.2190477 0.1917093 0.647 189 218 255 
0.234246 0.1940798 0.655 197 228 255 
-0.3113995 0.2237184 0.751 20 36 44 
-0.2954967 0.2225269 0.747 32 50 57 
-0.2838881 0.2246121 0.754 32 50 59 
-0.2741572 0.2284847 0.767 27 45 54 
-0.2598701 0.2287826 0.768 26 44 51 
-0.2480992 0.2314637 0.777 30 48 57 
-0.2338835 0.2320595 0.779 20 39 43 
-0.1671243 0.1876733 0.6300001 55 78 85 
-0.151418 0.1832048 0.615 91 116 137 
-0.1378737 0.1808217 0.6070001 137 167 188 
-0.1252588 0.1793322 0.6020001 112 137 158 
-0.1130236 0.1781407 0.598 135 160 181 
-0.1011108 0.177247 0.595 160 187 209 
-0.09021766 0.1781407 0.598 140 167 189 
-0.07921008 0.1790343 0.601 149 179 200 
-0.06786265 0.1793322 0.6020001 132 159 181 
-0.05610244 0.1784386 0.599 128 155 179 
-0.04445663 0.1775449 0.596 124 151 175 
-0.03286972 0.1763533 0.592 115 140 163 
-0.0213989 0.1748638 0.587 104 126 148 
-0.01011877 0.1733744 0.582 125 152 176 
0.0009740485 0.1724807 0.5790001 115 141 168 
0.0118902 0.1706933 0.573 98 123 144 
0.02265717 0.1695017 0.569 88 114 132 
0.03327159 0.1683102 0.565 126 153 175 
0.04396733 0.1680122 0.564 163 187 201 
0.05472196 0.1680122 0.564 138 140 148 
0.06570878 0.1686081 0.566 138 137 141 
0.07717735 0.1700975 0.571 157 151 155 
0.08899084 0.1718849 0.577 170 166 171 
0.1012065 0.1739701 0.5840001 188 216 249 
0.1140738 0.1766512 0.5930001 195 228 255 
0.1264386 0.1781407 0.598 197 230 255 
0.1396855 0.1805238 0.606 185 212 254 
0.1527385 0.1823112 0.612 187 219 253 
0.1657516 0.1838007 0.617 187 219 253 
0.1795308 0.1858859 0.624 189 219 253 
0.1932702 0.1876733 0.6300001 185 214 253 
0.2078902 0.1900564 0.638 187 216 253 
0.223505 0.1930353 0.648 191 221 255 
0.2387733 0.1954185 0.656 196 229 255 
-0.3045846 0.2234144 0.7460001 25 43 50 
-0.2919163 0.2246123 0.7500001 29 50 56 
-0.2805762 0.2270082 0.758 32 50 59 
-0.268931 0.2294041 0.766 24 42 49 
-0.2549885 0.230003 0.768 28 46 53 
-0.2437864 0.2332973 0.779 26 44 53 
-0.1790249 0.1928671 0.6440001 22 43 49 
-0.1610485 0.1862785 0.622 80 101 118 
-0.1465495 0.1829842 0.611 97 124 144 
-0.133574 0.1811873 0.605 129 156 178 
-0.121029 0.1796899 0.6 90 109 127 
-0.1088573 0.1784919 0.596 97 115 138 
-0.09732889 0.1781925 0.595 160 187 211 
-0.08641667 0.1790909 0.598 125 152 174 
-0.07539003 0.1799893 0.601 146 176 197 
-0.06382349 0.1796899 0.6 123 150 174 
-0.05220779 0.1790909 0.598 131 158 182 
-0.04053189 0.177893 0.594 113 135 159 
-0.02900854 0.176695 0.59 115 140 161 
-0.01760764 0.1751976 0.585 112 134 156 
-0.00639742 0.1737002 0.58 130 157 181 
0.004630152 0.1725023 0.576 107 137 160 
0.01550518 0.1713043 0.572 111 136 157 
0.02622765 0.1701064 0.568 91 117 135 
0.03686282 0.1692079 0.565 141 163 185 
0.04755221 0.1689085 0.564 174 196 210 
0.05830684 0.1689085 0.564 138 144 155 
0.06955127 0.1701064 0.568 147 143 148 
0.08108976 0.1716038 0.573 169 165 170 
0.09297953 0.1734007 0.5790001 169 178 190 
0.1054574 0.1757966 0.587 192 222 254 
0.117843 0.1775935 0.5930001 183 208 244 
0.1306751 0.1796899 0.6 183 212 251 
0.1440111 0.1820857 0.608 189 218 255 
0.1568844 0.1835831 0.613 188 220 254 
0.1702234 0.18538 0.619 188 220 254 
0.1837911 0.1871769 0.625 189 219 253 
0.198214 0.1895728 0.633 187 216 255 
0.212942 0.1919687 0.641 186 215 252 
0.2279751 0.1943645 0.649 192 222 254 
0.245165 0.1982578 0.6620001 195 228 253 
-0.3009984 0.2236966 0.743 27 45 52 
-0.2899188 0.2261052 0.751 30 51 57 
-0.2789012 0.2288149 0.7600001 30 48 57 
-0.2661487 0.2303202 0.765 24 42 49 
-0.2522189 0.2309223 0.767 30 48 55 
-0.2410009 0.2342342 0.7780001 23 41 48 
-0.1761537 0.1929873 0.641 24 47 54 
-0.1583045 0.1863637 0.619 91 118 131 
-0.1438977 0.1830519 0.608 91 113 137 
-0.131216 0.1815465 0.603 126 151 174 
-0.1189236 0.1803422 0.599 91 113 135 
-0.1067837 0.1791379 0.595 109 136 160 
-0.09559833 0.179439 0.596 161 188 212 
-0.08437484 0.1797401 0.597 126 153 177 
-0.07348 0.1809444 0.601 143 173 194 
-0.06181346 0.1803422 0.599 115 142 166 
-0.05022317 0.1797401 0.597 131 158 182 
-0.03857906 0.1785358 0.5930001 111 133 157 
-0.02708748 0.1773315 0.589 115 140 163 
-0.01569462 0.1755251 0.583 108 130 152 
-0.004554132 0.1746219 0.58 136 163 187 
0.006449511 0.1731165 0.575 109 139 162 
0.01729275 0.1719122 0.571 117 139 163 
0.02798345 0.1707079 0.567 98 124 142 
0.03865844 0.1701058 0.565 143 170 192 
0.04943213 0.1701058 0.565 171 194 213 
0.06009927 0.1698047 0.564 135 145 159 
0.07135642 0.171009 0.568 152 147 155 
0.08291079 0.1725143 0.573 169 167 174 
0.09481964 0.1743208 0.5790001 193 217 247 
0.1075058 0.1770304 0.588 191 223 253 
0.1197276 0.1785358 0.5930001 186 214 249 
0.132582 0.1806433 0.6 183 212 253 
0.1464234 0.183654 0.61 187 216 253 
0.1590917 0.1848583 0.614 189 221 255 
0.1724688 0.1866647 0.62 187 219 253 
0.1860747 0.1884712 0.626 186 216 250 
0.2002258 0.1905787 0.633 189 218 255 
0.2149792 0.1929873 0.641 189 218 255 
0.2296832 0.1950947 0.648 190 222 254 
0.2480159 0.1999119 0.664 192 223 248 
-0.298637 0.2248773 0.743 27 45 52 
-0.2875321 0.2272986 0.751 32 50 59 
-0.2768496 0.2303252 0.761 26 47 55 
-0.2630279 0.2309305 0.763 26 44 51 
-0.2497813 0.2321411 0.767 31 49 56 
-0.2385283 0.2354704 0.7780001 17 38 44 
-0.1727584 0.1924925 0.636 38 59 67 
-0.1555796 0.1864393 0.6160001 75 97 111 
-0.1417319 0.1837154 0.6070001 97 122 145 
-0.1290852 0.182202 0.6020001 122 149 171 
-0.1168246 0.1809914 0.598 133 158 183 
-0.1047164 0.1797808 0.594 143 170 192 
-0.09370419 0.1803861 0.596 156 186 209 
-0.08247752 0.1806887 0.597 134 161 185 
-0.07145089 0.1815967 0.6 138 170 190 
-0.05980977 0.1809914 0.598 112 139 163 
-0.04816396 0.1800834 0.595 136 166 189 
-0.03663257 0.1791754 0.592 110 132 156 
-0.02512997 0.1776621 0.587 123 148 171 
-0.01381805 0.1761488 0.582 119 141 167 
-0.002706171 0.1752408 0.5790001 137 167 190 
0.008262512 0.1737275 0.574 111 138 162 
0.01910744 0.1728195 0.571 116 143 165 
0.02978542 0.1716089 0.567 102 127 150 
0.04038245 0.1707009 0.564 142 174 194 
0.05122775 0.1710036 0.565 168 193 214 
0.06200145 0.1710036 0.565 160 177 193 
0.07329036 0.1722142 0.569 157 156 167 
0.08487971 0.1737275 0.574 173 182 192 
0.09682669 0.1755435 0.58 191 221 253 
0.1093745 0.1779648 0.588 194 227 254 
0.1216122 0.1794781 0.5930001 194 224 254 
0.1344888 0.1815967 0.6 183 212 251 
0.1483621 0.1846233 0.61 187 218 255 
0.161043 0.185834 0.614 189 221 255 
0.1747205 0.1879526 0.6210001 185 217 251 
0.1883646 0.1897686 0.627 185 214 251 
0.2022375 0.1915845 0.633 190 219 255 
0.2170163 0.1940058 0.641 187 216 253 
0.2317426 0.1961244 0.648 190 222 254 
0.2508795 0.2015723 0.666 197 221 251 
-0.295877 0.2257537 0.742 28 46 53 
-0.285525 0.2287962 0.752 31 49 58 
-0.2744311 0.2315344 0.761 25 46 54 
-0.2602615 0.2318387 0.762 27 45 52 
-0.2476662 0.2336642 0.768 28 46 53 
-0.2357523 0.2364024 0.777 18 36 43 
-0.1693949 0.1919819 0.631 60 81 89 
-0.1531231 0.1868096 0.614 62 79 95 
-0.1393422 0.1840714 0.605 131 158 182 
-0.1269608 0.1828544 0.601 120 145 168 
-0.1147319 0.1816374 0.597 143 173 194 
-0.1028287 0.1807246 0.594 153 183 204 
-0.09165601 0.1810289 0.595 148 180 202 
-0.08044524 0.1813331 0.596 142 172 195 
-0.06942814 0.1822459 0.599 136 168 188 
-0.05771559 0.1813331 0.596 123 149 176 
-0.04619524 0.1807246 0.594 134 164 187 
-0.03469244 0.1798119 0.591 112 134 158 
-0.0232248 0.1782906 0.586 118 143 166 
-0.01194785 0.1767694 0.581 123 150 174 
-0.0008630694 0.1755524 0.577 136 166 189 
0.01006916 0.1743354 0.573 111 138 162 
0.02088548 0.1734226 0.5700001 119 146 170 
0.03153168 0.1722056 0.566 106 131 154 
0.04217489 0.1715971 0.564 145 177 197 
0.05302336 0.1719014 0.565 165 190 213 
0.06390999 0.1722056 0.566 181 200 218 
0.0750987 0.1731184 0.569 160 170 184 
0.08670393 0.1746396 0.574 191 213 239 
0.09884009 0.1767694 0.581 192 222 254 
0.1112432 0.1788991 0.588 185 214 251 
0.1234968 0.1804204 0.5930001 193 223 253 
0.136623 0.1828544 0.601 187 216 255 
0.1503007 0.1855926 0.61 185 216 253 
0.1632598 0.1871139 0.615 188 220 254 
0.1769786 0.1892436 0.622 187 219 253 
0.1903573 0.1907649 0.627 182 213 252 
0.2045719 0.1928946 0.634 187 219 253 
0.2190534 0.1950244 0.641 185 216 253 
0.2341628 0.1974584 0.649 194 226 255 
0.2537559 0.2032392 0.668 98 113 141 
-0.2954782 0.2266269 0.7410001 28 46 53 
-0.2851453 0.2296853 0.751 31 49 58 
-0.2740705 0.2324379 0.7600001 24 45 53 
-0.25992 0.2327437 0.761 27 45 54 
-0.2473437 0.2345787 0.767 27 45 52 
-0.2357523 0.2376371 0.777 19 35 43 
-0.1657979 0.1911495 0.625 59 77 86 
-0.1504331 0.1868678 0.611 92 117 138 
-0.1371923 0.1847269 0.604 144 171 195 
-0.1246346 0.1831977 0.599 118 140 162 
-0.1126456 0.1822802 0.596 138 163 186 
-0.1009409 0.1816685 0.594 162 192 215 
-0.08976506 0.1819744 0.595 139 169 192 
-0.07855109 0.1822802 0.596 149 181 203 
-0.06741174 0.1828919 0.598 136 168 188 
-0.0557278 0.1819744 0.595 126 153 177 
-0.04423286 0.1813627 0.5930001 134 164 187 
-0.03275868 0.1804452 0.59 112 137 160 
-0.02128954 0.1786101 0.5840001 118 143 166 
-0.01010138 0.1776926 0.581 124 151 175 
0.0009690015 0.1761634 0.576 129 163 185 
0.0118902 0.1752459 0.573 108 135 157 
0.02265717 0.1740225 0.569 132 157 180 
0.03333048 0.173105 0.566 112 139 161 
0.04396733 0.1724934 0.564 150 182 200 
0.05481898 0.1727992 0.565 164 191 213 
0.06570878 0.173105 0.566 176 197 216 
0.07704219 0.1743284 0.5700001 185 204 222 
0.08868238 0.1758576 0.575 192 217 251 
0.1006866 0.1776926 0.581 191 221 253 
0.1131119 0.1798335 0.588 186 213 251 
0.1253814 0.1813627 0.5930001 186 216 250 
0.1387635 0.1841153 0.6020001 185 216 255 
0.1524889 0.1868678 0.611 187 218 255 
0.1652143 0.1880912 0.615 188 220 254 
0.1792431 0.1905379 0.623 185 217 251 
0.1929635 0.1923729 0.629 184 213 252 
0.2065868 0.1939021 0.634 183 215 249 
0.2210906 0.196043 0.641 187 218 255 
0.2365894 0.1987955 0.65 194 227 254 
-0.3053095 0.2281118 0.742 20 38 45 
-0.2919455 0.2287267 0.744 30 48 55 
-0.2814918 0.2318009 0.754 28 49 57 
-0.2692398 0.2336455 0.7600001 23 44 52 
-0.2550829 0.233953 0.761 28 44 52 
-0.2446814 0.2379495 0.774 24 40 48 
-0.1779129 0.1967541 0.64 19 37 46 
-0.1597539 0.1896833 0.617 97 123 139 
-0.1455901 0.186609 0.6070001 122 152 173 
-0.1329116 0.1850719 0.6020001 139 166 188 
-0.1204238 0.1835347 0.597 96 115 133 
-0.108492 0.1826124 0.594 97 113 132 
-0.09716532 0.1826124 0.594 165 194 220 
-0.08583863 0.1826124 0.594 129 156 180 
-0.07488826 0.1835347 0.597 152 184 206 
-0.063398 0.1832273 0.596 129 156 180 
-0.05185858 0.1826124 0.594 129 156 180 
-0.04039542 0.1819976 0.592 117 142 167 
-0.02886104 0.1804604 0.587 113 138 161 
-0.01751734 0.1789233 0.582 112 137 158 
-0.00638639 0.178001 0.5790001 122 149 173 
0.004614075 0.1764638 0.574 127 158 183 
0.01547807 0.1755416 0.571 100 122 146 
0.02618148 0.1743119 0.567 146 176 197 
0.03686282 0.173697 0.565 123 150 174 
0.04755221 0.1733896 0.564 158 188 207 
0.05841022 0.173697 0.565 167 194 216 
0.06942882 0.1743119 0.567 172 197 218 
0.08080672 0.1755416 0.571 183 207 235 
0.09265835 0.1773861 0.577 191 219 254 
0.1047388 0.1792307 0.583 194 224 254 
0.1170481 0.1810753 0.589 193 223 255 
0.1293684 0.1826124 0.594 183 212 251 
0.1433005 0.1859941 0.605 186 215 254 
0.1568844 0.1884536 0.613 185 216 253 
0.1696734 0.1896833 0.617 188 220 254 
0.1834971 0.1918353 0.624 187 219 253 
0.1975878 0.1939873 0.631 187 216 253 
0.2106166 0.1949095 0.634 188 219 255 
0.2251649 0.1970616 0.641 188 220 254 
