ply
format ascii 1.0
element vertex 1232
property float32 x
property float32 y
property float32 z
property uchar red
property uchar green
property uchar blue
end_header
0.03686282 0.1431715 0.565 28 26 18 
0.04932371 0.1378501 0.544 33 31 23 
0.06234207 0.1360763 0.537 98 86 86 
0.07613663 0.1363297 0.538 138 126 126 
0.0909837 0.1381035 0.545 138 127 131 
0.1059943 0.1396239 0.551 151 142 145 
0.122399 0.1424113 0.562 159 150 153 
0.1400927 0.1459589 0.576 166 154 152 
0.1542 0.1454521 0.574 109 90 88 
0.1693819 0.1459589 0.576 179 204 238 
0.185624 0.1472259 0.581 183 214 251 
0.2021203 0.1484929 0.586 187 217 251 
0.2170191 0.1484929 0.586 180 205 241 
0.2323137 0.1487463 0.587 178 205 243 
0.2480804 0.1492532 0.589 183 214 251 
0.2652886 0.1505202 0.594 185 217 251 
-0.1011566 0.178493 0.7 2 5 4 
-0.08169219 0.1749231 0.686 67 84 89 
-0.06340794 0.1726282 0.677 87 104 116 
-0.04585426 0.1713533 0.6720001 71 85 91 
-0.0283836 0.1690584 0.663 64 78 82 
-0.01137057 0.1667634 0.654 46 59 58 
0.005096382 0.1616636 0.634 43 51 50 
0.02044596 0.1557989 0.611 23 24 18 
0.0352534 0.1448343 0.568 29 27 19 
0.04776981 0.1392245 0.546 29 27 19 
0.06074836 0.1371846 0.538 91 76 77 
0.07442683 0.1371846 0.538 136 121 122 
0.08925164 0.1389695 0.545 140 130 130 
0.104054 0.1402445 0.55 151 142 147 
0.1203983 0.1430494 0.561 161 152 155 
0.1377821 0.1463642 0.574 164 152 152 
0.1523758 0.1463642 0.574 122 101 98 
0.1675514 0.1468742 0.576 188 216 249 
0.1834612 0.1478942 0.58 184 216 250 
0.1999162 0.1491691 0.585 190 220 252 
0.2147896 0.1491691 0.585 177 205 240 
0.2304482 0.1496791 0.587 178 205 243 
0.2453725 0.1496791 0.587 180 209 246 
0.2629574 0.1512091 0.5930001 187 219 253 
0.2808473 0.152739 0.599 85 110 135 
-0.08642883 0.1767829 0.689 76 92 102 
-0.06781107 0.1739606 0.678 81 97 107 
-0.0501256 0.1724211 0.6720001 62 75 84 
-0.0326469 0.1703684 0.664 56 68 72 
-0.01559873 0.1685724 0.657 55 69 73 
0.001076668 0.1642106 0.64 50 65 64 
0.01669788 0.1580527 0.6160001 38 49 47 
0.03197736 0.1472763 0.574 30 28 20 
0.04478616 0.1416316 0.552 29 25 18 
0.05754186 0.1385527 0.54 76 64 64 
0.07087522 0.1377829 0.537 130 113 115 
0.08563012 0.139579 0.544 142 132 132 
0.1001925 0.1406053 0.548 145 136 141 
0.1157912 0.1426579 0.5560001 160 151 156 
0.1334326 0.1465066 0.571 158 146 146 
0.1487274 0.1472763 0.574 137 122 121 
0.1636057 0.1475329 0.575 198 230 252 
0.1794647 0.1485592 0.5790001 189 225 251 
0.1955271 0.1495855 0.583 190 220 254 
0.2107105 0.1498421 0.5840001 179 206 246 
0.2259447 0.1500987 0.585 180 207 245 
0.2412297 0.1503553 0.586 175 204 241 
0.258314 0.1516382 0.591 184 216 250 
0.276115 0.1531776 0.597 194 230 255 
-0.09133542 0.1789105 0.693 73 91 98 
-0.07222692 0.1752961 0.679 82 98 108 
-0.05455884 0.1740053 0.674 71 87 97 
-0.03697844 0.1719399 0.666 60 77 82 
-0.01983493 0.1701328 0.659 62 75 84 
-0.003009972 0.1662602 0.6440001 57 70 69 
0.01286549 0.1600642 0.62 49 57 54 
0.02862504 0.1497375 0.58 31 26 22 
0.041801 0.1443159 0.559 30 26 19 
0.05441014 0.1401853 0.543 47 42 38 
0.06746196 0.1386362 0.537 130 113 115 
0.08202131 0.1401853 0.543 141 128 132 
0.09653281 0.1412179 0.5470001 140 129 135 
0.1118534 0.1430251 0.554 158 149 154 
0.1288939 0.1463813 0.567 157 147 147 
0.1453317 0.1484466 0.575 152 140 140 
0.1593945 0.1479303 0.573 195 224 250 
0.1751772 0.148963 0.577 197 237 250 
0.1911634 0.1499956 0.581 185 212 252 
0.206644 0.150512 0.583 184 213 252 
0.2218464 0.1507701 0.5840001 179 206 244 
0.2370997 0.1510283 0.585 184 213 252 
0.2532653 0.1518028 0.588 190 222 255 
0.2709519 0.1533518 0.594 181 212 251 
-0.09629285 0.1810507 0.697 52 65 62 
-0.07676821 0.1768946 0.6810001 67 82 95 
-0.0589302 0.175336 0.675 83 98 113 
-0.0413354 0.1735177 0.668 70 86 96 
-0.02402364 0.1711799 0.659 66 80 86 
-0.007136432 0.1680628 0.647 52 63 63 
0.009011034 0.1626079 0.626 40 48 45 
0.02405084 0.1568933 0.604 30 25 21 
0.03699331 0.1472823 0.567 34 30 23 
0.04959572 0.1420871 0.5470001 33 29 22 
0.06245817 0.1397493 0.538 102 86 91 
0.07641967 0.1402688 0.54 135 123 123 
0.0909837 0.1415676 0.545 135 126 129 
0.105802 0.1428664 0.55 152 143 148 
0.1226168 0.1462432 0.563 158 149 152 
0.1396063 0.1491006 0.574 163 151 151 
0.1539314 0.1488408 0.573 103 86 86 
0.1690879 0.1493603 0.575 188 213 247 
0.1846655 0.1501396 0.578 183 210 250 
0.2010855 0.1514384 0.583 191 223 255 
0.2155378 0.1511786 0.582 178 205 243 
0.2307307 0.1514384 0.583 178 206 241 
0.2463956 0.1519579 0.585 178 207 244 
0.2639487 0.1535164 0.591 187 219 253 
0.2813349 0.1548152 0.596 164 196 218 
-0.0936728 0.1813742 0.694 67 86 90 
-0.07438484 0.177454 0.679 87 107 118 
-0.05670087 0.1761473 0.674 77 94 106 
-0.03909504 0.1740565 0.666 67 80 91 
-0.02189601 0.1719657 0.6580001 66 80 86 
-0.005056657 0.1683069 0.6440001 54 66 68 
0.01094779 0.1628186 0.623 45 53 50 
0.02558343 0.1555009 0.595 29 26 21 
0.03865844 0.1476606 0.565 31 27 20 
0.05124028 0.142695 0.546 35 30 26 
0.06416798 0.1406042 0.538 114 98 103 
0.07828052 0.1413882 0.541 136 125 129 
0.09288586 0.142695 0.546 135 126 129 
0.1077455 0.1440017 0.551 155 146 151 
0.124627 0.1473992 0.564 157 148 151 
0.1414305 0.1500127 0.574 159 147 147 
0.1554806 0.14949 0.572 155 164 176 
0.1709152 0.150274 0.575 192 225 250 
0.1865024 0.151058 0.578 181 208 248 
0.2025903 0.1521034 0.582 185 217 249 
0.2170139 0.1518421 0.581 177 204 242 
0.2325835 0.1523648 0.583 177 206 243 
0.2482548 0.1528875 0.585 177 206 243 
0.2653772 0.1541942 0.59 183 214 251 
0.2822786 0.1552396 0.594 182 214 234 
-0.0936728 0.182477 0.694 74 92 99 
-0.07427529 0.17827 0.678 88 108 119 
-0.05661674 0.1769554 0.673 78 95 109 
-0.03903634 0.1748519 0.665 69 82 93 
-0.02186273 0.1727484 0.657 66 79 88 
-0.005056657 0.1693303 0.6440001 54 66 68 
0.01094779 0.1638086 0.623 43 54 52 
0.02562642 0.1567094 0.596 29 26 21 
0.03865844 0.1485584 0.565 33 29 22 
0.05133413 0.1438255 0.5470001 34 29 25 
0.06416798 0.1414591 0.538 114 98 103 
0.07842522 0.1425109 0.5420001 137 126 130 
0.09288586 0.1435626 0.546 135 126 129 
0.1077455 0.1448773 0.551 155 146 151 
0.124627 0.1482954 0.564 157 148 151 
0.1411841 0.1506619 0.573 158 146 146 
0.1554806 0.1503989 0.572 171 186 199 
0.170618 0.1509248 0.574 195 228 253 
0.1865024 0.1519765 0.578 181 208 248 
0.2025903 0.1530283 0.582 185 217 249 
0.2170139 0.1527653 0.581 177 204 242 
0.2321846 0.1530283 0.582 178 205 243 
0.2478304 0.1535541 0.5840001 176 205 242 
0.2649274 0.1548688 0.589 183 214 251 
0.2818034 0.1559206 0.5930001 194 231 252 
-0.0961547 0.1841089 0.696 56 73 76 
-0.07654276 0.1796119 0.679 68 85 97 
-0.05875559 0.1780248 0.673 83 103 116 
-0.04114976 0.1759086 0.665 75 91 101 
-0.02395073 0.1737924 0.657 67 83 91 
-0.007114372 0.1706181 0.645 47 59 61 
0.009011034 0.1655921 0.626 39 50 48 
0.02409066 0.1600371 0.605 27 27 21 
0.03705855 0.1502497 0.568 34 32 24 
0.04977705 0.1452238 0.549 33 30 25 
0.06257426 0.1425785 0.539 102 84 90 
0.07656118 0.1431076 0.541 137 126 132 
0.09115063 0.1444302 0.546 134 125 128 
0.105802 0.1454883 0.55 152 143 148 
0.1226168 0.1489271 0.563 158 149 154 
0.1393631 0.1515724 0.573 158 146 146 
0.1533941 0.1510433 0.571 90 83 92 
0.1684997 0.1515724 0.573 185 210 242 
0.184346 0.1526305 0.577 178 205 243 
0.2003957 0.1536886 0.581 190 222 252 
0.2147971 0.153424 0.58 179 206 244 
0.2295434 0.153424 0.58 176 204 239 
0.2455532 0.1542176 0.583 176 204 239 
0.2626089 0.1555402 0.588 185 217 249 
0.2799188 0.1568629 0.5930001 194 232 255 
-0.1010121 0.1860132 0.6990001 1 7 9 
-0.08121584 0.1814892 0.682 69 87 94 
-0.06312695 0.1793603 0.674 90 110 123 
-0.04551308 0.1774976 0.6670001 74 90 100 
-0.02816954 0.1751025 0.6580001 63 77 83 
-0.01126625 0.1724414 0.648 54 68 70 
0.005072267 0.1679175 0.631 52 66 68 
0.02047943 0.1628613 0.612 41 52 52 
0.03374269 0.1524829 0.573 33 31 23 
0.04670908 0.1474267 0.554 30 30 24 
0.0594775 0.1442334 0.5420001 78 63 64 
0.07285218 0.143435 0.539 133 122 126 
0.08751959 0.1450317 0.545 132 123 126 
0.1021201 0.1460962 0.549 148 139 144 
0.1186154 0.1492895 0.561 158 152 156 
0.1354841 0.1522168 0.572 158 146 146 
0.1497647 0.1519507 0.571 105 91 87 
0.1645699 0.1522168 0.572 178 203 235 
0.1800523 0.1530151 0.575 186 214 249 
0.1960257 0.1540796 0.5790001 193 223 255 
0.2111105 0.1543457 0.58 179 206 246 
0.2254674 0.1540796 0.5790001 172 200 233 
0.2414328 0.1548779 0.582 173 203 235 
0.2575507 0.1556763 0.585 190 222 254 
0.2742869 0.1567407 0.589 188 223 254 
0.2922086 0.1583374 0.595 148 170 192 
-0.09094003 0.1847146 0.6900001 85 102 114 
-0.07180142 0.1806991 0.675 84 99 112 
-0.054316 0.1796282 0.671 76 96 109 
-0.03675635 0.1772189 0.6620001 65 81 89 
-0.01965434 0.1748096 0.6530001 68 84 92 
-0.00299595 0.1715972 0.641 59 71 73 
0.01286549 0.1659754 0.62 50 61 61 
0.0287731 0.1560704 0.583 30 27 22 
0.04195056 0.150181 0.561 34 32 24 
0.05481095 0.1464332 0.5470001 35 35 29 
0.06758759 0.1440238 0.538 133 117 122 
0.08232342 0.1458977 0.545 138 129 132 
0.09653281 0.1464332 0.5470001 137 128 133 
0.1118534 0.1483071 0.554 154 148 152 
0.1291212 0.1520549 0.568 152 144 143 
0.1443207 0.152858 0.571 139 124 123 
0.1588382 0.152858 0.571 193 223 255 
0.1739628 0.1533934 0.573 189 225 251 
0.1898473 0.1544642 0.577 187 214 252 
0.2055807 0.1552673 0.58 184 211 251 
0.2199471 0.1549996 0.5790001 179 206 244 
0.2350733 0.1552673 0.58 180 209 246 
0.250681 0.1558027 0.582 189 219 253 
0.2677589 0.1571412 0.587 181 212 251 
0.285091 0.1584798 0.592 192 228 254 
-0.09850799 0.1876961 0.697 70 84 86 
-0.07858477 0.1825795 0.678 59 72 81 
-0.06089444 0.1812331 0.673 89 109 122 
-0.04319813 0.1788094 0.664 75 93 102 
-0.0259991 0.1766551 0.656 69 82 91 
-0.009164235 0.1736929 0.645 47 61 65 
0.007032771 0.1688457 0.627 50 62 64 
0.02227785 0.1637291 0.608 41 52 52 
0.0371238 0.1532268 0.569 35 32 27 
0.04995839 0.1483795 0.551 32 33 24 
0.06269035 0.1454173 0.54 101 85 90 
0.07670271 0.1459559 0.5420001 135 126 133 
0.09131759 0.1473024 0.5470001 134 125 130 
0.105802 0.1481102 0.55 149 143 147 
0.1228346 0.1518803 0.564 154 148 152 
0.1391198 0.1540346 0.572 154 142 142 
0.1528568 0.1532268 0.569 182 202 217 
0.1679116 0.1537654 0.571 193 224 251 
0.183707 0.1548425 0.575 179 204 240 
0.1997059 0.1559197 0.5790001 189 221 253 
0.2144268 0.1559197 0.5790001 179 207 242 
0.2287519 0.1556504 0.578 172 200 233 
0.2451321 0.1567276 0.582 174 202 235 
0.2608224 0.1572661 0.5840001 186 221 252 
0.2775586 0.1583433 0.588 189 226 254 
0.296488 0.1604976 0.596 66 91 116 
-0.08823268 0.1858239 0.686 85 102 116 
-0.06955303 0.1825734 0.674 60 75 88 
-0.05202796 0.181219 0.669 76 93 105 
-0.03454776 0.178781 0.66 61 77 85 
-0.01747137 0.1758014 0.649 70 83 92 
-0.0009528167 0.1725508 0.637 57 74 77 
0.01476411 0.1671332 0.617 51 64 63 
0.03046833 0.1571106 0.58 33 30 25 
0.0436555 0.151693 0.56 35 32 27 
0.05644598 0.1479007 0.546 39 36 31 
0.0694262 0.1460045 0.539 132 121 127 
0.0842097 0.1479007 0.546 137 128 133 
0.09863053 0.1487133 0.549 141 132 137 
0.1142293 0.1508804 0.557 156 150 154 
0.1313874 0.1544018 0.5700001 156 144 144 
0.1456235 0.1541309 0.569 123 106 106 
0.1603715 0.1544018 0.5700001 191 221 251 
0.1757839 0.1552145 0.573 187 219 253 
0.1913488 0.1560271 0.576 190 218 253 
0.2070663 0.1568397 0.5790001 182 211 252 
0.2214041 0.1565689 0.578 174 201 239 
0.2369165 0.1571106 0.58 177 205 240 
0.2516629 0.1571106 0.58 191 221 255 
0.2687058 0.158465 0.585 177 208 249 
0.2864877 0.1600903 0.591 195 231 255 
-0.09822533 0.1893663 0.6950001 69 86 91 
-0.07846886 0.1844618 0.677 59 72 83 
-0.06080396 0.1830994 0.6720001 92 112 125 
-0.04313308 0.1806472 0.663 77 95 104 
-0.02595946 0.1784675 0.655 69 83 89 
-0.009150026 0.1754703 0.6440001 51 65 69 
0.007021554 0.1705659 0.626 51 65 71 
0.02224121 0.1653889 0.6070001 44 54 57 
0.03556373 0.156125 0.573 34 31 26 
0.04846974 0.150948 0.554 32 32 26 
0.06120002 0.1476784 0.5420001 82 67 68 
0.07498019 0.1476784 0.5420001 131 122 129 
0.08974293 0.1493132 0.548 132 123 128 
0.104054 0.1498582 0.55 146 140 144 
0.1210422 0.1536727 0.564 154 148 152 
0.137062 0.15558 0.571 154 142 142 
0.150783 0.1547626 0.568 115 124 134 
0.165806 0.1553076 0.5700001 181 209 240 
0.1815633 0.1563974 0.574 176 204 239 
0.1971823 0.1572149 0.577 191 221 253 
0.2122195 0.1574873 0.578 176 205 244 
0.2261298 0.1569424 0.576 171 199 232 
0.2428644 0.1583047 0.581 172 200 233 
0.2576361 0.1583047 0.581 188 220 252 
0.2747522 0.1596671 0.586 189 226 254 
0.2936053 0.1618468 0.594 201 240 255 
-0.09560209 0.1896484 0.692 69 87 96 
-0.07609184 0.1849894 0.675 76 93 105 
-0.05858098 0.1838932 0.671 90 110 125 
-0.04096413 0.1814267 0.6620001 78 95 107 
-0.02376846 0.1786861 0.652 71 84 93 
-0.007070252 0.1756715 0.641 47 59 63 
0.008982244 0.1710125 0.624 47 59 61 
0.02409066 0.1658054 0.605 33 44 42 
0.03725429 0.1564874 0.571 36 33 28 
0.05013973 0.1515543 0.553 35 32 27 
0.06280644 0.1482656 0.541 91 81 81 
0.07698574 0.1490878 0.544 132 126 130 
0.09165146 0.1504581 0.549 132 123 128 
0.1059943 0.1510062 0.551 146 142 145 
0.1232702 0.1551171 0.566 154 148 152 
0.1386334 0.1562133 0.5700001 151 139 139 
0.1523196 0.1553911 0.567 184 208 236 
0.1676175 0.1562133 0.5700001 196 229 254 
0.1833875 0.1573095 0.574 179 204 240 
0.199016 0.1581317 0.577 185 217 251 
0.2140564 0.1584058 0.578 177 206 243 
0.2279603 0.1578577 0.576 174 202 233 
0.2438685 0.1586798 0.5790001 174 202 235 
0.2599292 0.159502 0.582 189 221 253 
0.2766145 0.1605982 0.586 189 226 254 
0.2954931 0.1627907 0.594 204 243 255 
-0.09794266 0.1910237 0.693 69 86 91 
-0.07835296 0.1863377 0.6760001 58 71 82 
-0.06071347 0.1849595 0.671 93 115 129 
-0.04306802 0.1824787 0.6620001 80 98 107 
-0.0258802 0.1799978 0.6530001 69 83 89 
-0.00912161 0.1769657 0.642 59 71 75 
0.007010337 0.1722797 0.625 55 71 79 
0.02224121 0.167318 0.6070001 44 59 58 
0.03568786 0.1584973 0.575 34 31 26 
0.04855723 0.1529844 0.555 35 32 27 
0.06131294 0.1496766 0.543 69 59 59 
0.07511853 0.1496766 0.543 128 122 126 
0.09007046 0.1516061 0.55 129 123 127 
0.1042432 0.1518818 0.551 145 141 144 
0.1212568 0.1557408 0.565 154 148 152 
0.1368219 0.1571191 0.5700001 151 139 139 
0.1502521 0.1560165 0.566 180 200 215 
0.1655151 0.1568434 0.569 186 217 244 
0.181247 0.157946 0.573 176 201 237 
0.1968405 0.158773 0.576 189 221 253 
0.2122195 0.1593243 0.578 174 205 244 
0.2261298 0.158773 0.576 170 198 229 
0.2420284 0.1595999 0.5790001 172 200 231 
0.2571927 0.1598756 0.58 188 220 254 
0.2738145 0.1609782 0.5840001 192 227 255 
0.293111 0.163459 0.5930001 197 236 252 
-0.1002896 0.1924022 0.694 58 72 76 
-0.08062042 0.1876891 0.677 71 89 98 
-0.06284597 0.1860257 0.671 96 118 132 
-0.04517191 0.1835306 0.6620001 76 92 102 
-0.0279983 0.1813127 0.654 61 75 81 
-0.01117932 0.1782631 0.643 68 84 92 
0.005040113 0.1738273 0.627 63 81 88 
0.02037904 0.1688371 0.609 44 56 58 
0.03397824 0.1599655 0.577 32 32 26 
0.04696202 0.1544207 0.557 37 34 29 
0.05980671 0.1510939 0.545 49 44 40 
0.07339282 0.1505394 0.543 125 121 124 
0.08832251 0.1524801 0.55 128 122 126 
0.1024921 0.1527573 0.551 140 136 139 
0.1192497 0.1563614 0.564 151 145 149 
0.1350104 0.1580248 0.5700001 149 139 139 
0.148191 0.1566386 0.565 134 140 153 
0.1634191 0.1574703 0.568 181 205 233 
0.1791128 0.1585793 0.572 178 202 241 
0.1946714 0.159411 0.575 193 223 255 
0.2100186 0.1599655 0.577 176 207 246 
0.2242992 0.1596882 0.576 170 198 229 
0.2397734 0.1602427 0.578 173 201 232 
0.2544689 0.1602427 0.578 190 220 254 
0.2714927 0.1616289 0.583 189 221 253 
0.2907353 0.164124 0.592 197 236 254 
-0.1023475 0.1932261 0.693 47 55 52 
-0.08301651 0.1893226 0.679 79 99 110 
-0.06497846 0.1870919 0.671 94 116 128 
-0.0472758 0.1845825 0.6620001 68 84 94 
-0.03012275 0.1826307 0.655 52 65 74 
-0.0132434 0.1795637 0.6440001 72 88 98 
0.003057176 0.1753813 0.629 64 82 89 
0.01850415 0.1703624 0.611 46 63 64 
0.03253446 0.1628341 0.5840001 32 32 26 
0.04543523 0.1561423 0.56 41 38 33 
0.05828777 0.1525176 0.5470001 41 38 33 
0.07166713 0.1514023 0.543 119 115 118 
0.08657456 0.1533541 0.55 128 122 126 
0.1011066 0.1541905 0.553 139 133 137 
0.117249 0.1569788 0.563 148 144 147 
0.1334326 0.1592094 0.571 151 140 144 
0.1463954 0.1575364 0.565 90 81 88 
0.1613294 0.1580941 0.567 169 195 224 
0.176985 0.1592094 0.571 180 207 247 
0.1925086 0.1600459 0.574 191 219 254 
0.207824 0.1606035 0.576 178 207 248 
0.2224686 0.1606035 0.576 173 201 232 
0.2375249 0.1608824 0.577 174 202 235 
0.2517578 0.1606035 0.576 186 215 252 
0.2691774 0.1622765 0.582 180 214 250 
0.287878 0.1645071 0.59 196 235 253 
-0.1067523 0.1943273 0.693 4 7 6 
-0.08784682 0.1915232 0.683 88 110 122 
-0.06924345 0.1881582 0.671 60 76 86 
-0.05171689 0.1864757 0.665 79 99 110 
-0.03439073 0.1842324 0.657 68 86 95 
-0.01736369 0.1808674 0.645 74 90 100 
-0.0009468335 0.1775025 0.633 53 70 75 
0.01471625 0.172455 0.615 44 56 58 
0.02936535 0.1668467 0.595 29 30 26 
0.04232445 0.1587147 0.566 43 40 35 
0.05531197 0.1547889 0.552 39 36 31 
0.06821573 0.1522651 0.543 104 98 100 
0.08292762 0.1539476 0.549 132 126 130 
0.09759167 0.1550693 0.553 135 129 133 
0.112661 0.1564714 0.558 146 142 145 
0.1295759 0.1598363 0.5700001 156 143 147 
0.1430569 0.1587147 0.566 107 95 93 
0.1574473 0.1587147 0.566 187 217 249 
0.1730521 0.1598363 0.5700001 187 215 250 
0.1885312 0.1606776 0.573 191 220 255 
0.2038084 0.1612384 0.575 180 209 250 
0.2188074 0.1615188 0.576 176 205 242 
0.2334521 0.1615188 0.576 173 201 234 
0.2476659 0.1612384 0.575 178 208 240 
0.2645659 0.1626405 0.58 185 220 253 
0.2822016 0.164323 0.586 195 233 255 
-0.1108363 0.1948645 0.691 6 9 8 
-0.09259301 0.1934545 0.686 90 110 123 
-0.07361799 0.1895065 0.6720001 97 117 128 
-0.05619611 0.1883784 0.668 92 114 128 
-0.03868413 0.1858404 0.659 81 101 114 
-0.02152997 0.1824564 0.647 71 87 95 
-0.004985989 0.1790723 0.6350001 49 61 65 
0.0108775 0.1745603 0.619 51 65 69 
0.02584141 0.1694842 0.601 50 63 62 
0.03906897 0.1610241 0.571 38 38 32 
0.05217875 0.156794 0.5560001 39 36 31 
0.0648836 0.15341 0.544 76 71 69 
0.07929339 0.154538 0.548 126 122 125 
0.0939066 0.155666 0.552 130 124 128 
0.1081365 0.155948 0.553 142 138 141 
0.1257319 0.1604601 0.569 154 143 147 
0.1394593 0.1596141 0.566 127 115 113 
0.1533061 0.1590501 0.564 188 219 255 
0.1688345 0.1601781 0.568 187 217 251 
0.1845664 0.1613061 0.572 184 213 250 
0.1998055 0.1618701 0.574 185 214 251 
0.2151463 0.1624341 0.576 180 209 248 
0.229392 0.1621521 0.575 178 206 239 
0.2440111 0.1621521 0.575 172 202 232 
0.2599797 0.1629981 0.578 190 222 254 
0.2770512 0.1644081 0.583 187 223 249 
0.2963795 0.1669462 0.592 195 237 252 
-0.097236 0.1951118 0.688 83 101 110 
-0.07800523 0.1908579 0.673 59 72 83 
-0.06044203 0.1894399 0.668 98 119 136 
-0.0429379 0.1871712 0.66 79 99 110 
-0.0257613 0.1843353 0.65 67 80 89 
-0.009064778 0.1809321 0.638 67 85 92 
0.006999121 0.1769619 0.624 66 84 93 
0.02220456 0.1718572 0.606 43 57 59 
0.03606026 0.1647674 0.581 33 33 27 
0.04899468 0.1588119 0.56 41 38 33 
0.0617646 0.1551252 0.5470001 54 49 47 
0.07553354 0.1548416 0.546 121 117 120 
0.09023422 0.1562596 0.551 126 120 124 
0.1046216 0.1568268 0.553 138 134 137 
0.121686 0.1607971 0.567 153 147 151 
0.1361018 0.1607971 0.567 138 128 128 
0.1497212 0.1599463 0.564 187 212 244 
0.1649334 0.1607971 0.567 196 229 255 
0.1806144 0.1619314 0.571 180 205 241 
0.1958153 0.1624986 0.573 189 219 253 
0.211118 0.1630658 0.575 176 203 243 
0.2257372 0.1630658 0.575 169 198 224 
0.2403564 0.1630658 0.575 168 198 230 
0.255419 0.1633494 0.576 184 215 252 
0.2724079 0.1647674 0.581 194 226 255 
0.2911339 0.1670361 0.589 197 236 254 
-0.1042482 0.1970606 0.691 51 64 61 
-0.08504898 0.1933532 0.678 86 108 120 
-0.06681091 0.1905014 0.668 87 109 119 
-0.04937969 0.1887903 0.6620001 76 93 105 
-0.03215523 0.1865089 0.654 64 82 91 
-0.0152426 0.1830867 0.642 77 93 103 
0.001059845 0.1796645 0.6300001 61 75 81 
0.01658945 0.1745312 0.612 45 59 63 
0.03120377 0.169398 0.594 30 31 25 
0.04404529 0.1611277 0.565 47 44 39 
0.05737641 0.1582759 0.555 43 40 35 
0.07019904 0.155424 0.545 100 94 98 
0.08482663 0.15685 0.55 127 121 125 
0.0991695 0.1574203 0.552 136 125 129 
0.1156649 0.1608425 0.564 146 142 145 
0.1311569 0.1622684 0.569 151 140 144 
0.1443439 0.1608425 0.564 129 134 141 
0.1589647 0.1611277 0.565 172 196 224 
0.1745568 0.1622684 0.569 182 206 247 
0.19002 0.163124 0.572 187 217 251 
0.2049205 0.1634091 0.573 179 208 249 
0.2198719 0.1636943 0.574 176 206 240 
0.2348742 0.1639795 0.575 174 202 235 
0.2490594 0.1636943 0.574 177 207 239 
0.2654905 0.164835 0.578 184 216 250 
0.2830944 0.1665462 0.5840001 195 232 253 
-0.1108363 0.1981586 0.691 4 10 8 
-0.09218808 0.1958644 0.683 92 114 126 
-0.07339888 0.1921364 0.67 96 118 128 
-0.05602786 0.1909893 0.666 94 118 132 
-0.03862543 0.1886952 0.6580001 84 106 118 
-0.02146341 0.1849671 0.645 74 90 98 
-0.004985989 0.1820994 0.6350001 52 66 70 
0.01085993 0.1772243 0.618 60 76 84 
0.02584141 0.1723492 0.601 50 64 66 
0.03920582 0.1643196 0.573 38 38 32 
0.05255413 0.1605916 0.56 42 39 34 
0.06524142 0.1568636 0.5470001 71 66 64 
0.07943809 0.1574372 0.549 122 118 121 
0.09373646 0.1580107 0.551 129 123 127 
0.1083321 0.158871 0.554 140 136 139 
0.1257319 0.1631726 0.569 152 143 146 
0.1389665 0.1617387 0.564 116 99 101 
0.1533061 0.1617387 0.564 187 214 252 
0.1685373 0.162599 0.567 184 213 250 
0.1842438 0.1637461 0.571 186 213 251 
0.1994574 0.1643196 0.573 184 213 252 
0.2143993 0.1646064 0.574 179 208 247 
0.228993 0.1646064 0.574 177 205 238 
0.2435867 0.1646064 0.574 169 199 229 
0.2590801 0.16518 0.576 188 220 254 
0.2751504 0.1660403 0.5790001 188 224 250 
0.2958789 0.1694815 0.591 199 238 254 
-0.09927801 0.1981032 0.687 73 91 100 
-0.080025 0.1937778 0.6720001 79 92 103 
-0.06237767 0.1920476 0.666 99 123 137 
-0.04503543 0.1903175 0.66 76 93 105 
-0.02782705 0.1874339 0.65 58 70 76 
-0.01109239 0.1839736 0.638 74 91 103 
0.005024036 0.1802249 0.625 71 87 97 
0.02027865 0.1747461 0.606 59 76 79 
0.0346849 0.1698439 0.589 33 33 27 
0.04755221 0.1626349 0.564 49 46 41 
0.06057487 0.1591746 0.552 54 51 46 
0.07393347 0.1577328 0.5470001 109 103 107 
0.08832251 0.1585979 0.55 125 119 123 
0.1026781 0.1591746 0.552 137 131 135 
0.119884 0.1635 0.567 147 143 146 
0.134063 0.1632117 0.566 139 126 130 
0.1479287 0.1626349 0.564 187 212 248 
0.1625559 0.1629233 0.565 191 221 253 
0.1781734 0.1640767 0.569 181 206 242 
0.1936557 0.1649418 0.572 185 217 251 
0.2085626 0.1652302 0.573 177 204 244 
0.2231309 0.1652302 0.573 169 200 227 
0.2381141 0.1655185 0.574 172 200 231 
0.2527078 0.1655185 0.574 183 212 249 
0.2686987 0.1663836 0.577 185 216 253 
0.2868065 0.1684022 0.5840001 196 233 254 
-0.1064442 0.2003547 0.691 54 62 63 
-0.08720373 0.1965853 0.678 90 114 128 
-0.06872748 0.1931059 0.666 59 76 90 
-0.05148358 0.1919462 0.6620001 84 106 118 
-0.03428604 0.1899165 0.655 71 91 104 
-0.01728292 0.1861472 0.642 75 92 104 
-0.000943842 0.1829577 0.631 50 60 65 
0.01462054 0.1771587 0.611 49 63 67 
0.0294147 0.1728095 0.596 55 66 64 
0.04254878 0.1649809 0.569 46 43 38 
0.05601338 0.1620814 0.559 48 45 40 
0.06884387 0.158892 0.548 86 80 82 
0.08307867 0.1594719 0.55 125 119 123 
0.09723871 0.1597618 0.551 134 125 128 
0.1136705 0.1632412 0.563 145 141 144 
0.1291212 0.164691 0.568 153 144 147 
0.1425514 0.1635312 0.564 163 174 183 
0.1568909 0.1635312 0.564 172 197 222 
0.1724449 0.164691 0.568 180 204 245 
0.1878731 0.1655608 0.571 189 219 253 
0.2030995 0.1661407 0.573 183 210 252 
0.2176678 0.1661407 0.573 177 206 243 
0.2326414 0.1664306 0.574 171 199 232 
0.2472352 0.1664306 0.574 178 206 239 
0.2627413 0.1670105 0.576 189 221 255 
0.2788306 0.1678804 0.5790001 195 231 255 
-0.1130324 0.2014527 0.691 4 10 8 
-0.0943587 0.1991204 0.683 56 71 88 
-0.07541547 0.1950389 0.669 90 110 123 
-0.05788255 0.1932896 0.663 99 122 139 
-0.04071661 0.1918319 0.6580001 86 108 118 
-0.02354973 0.1883335 0.646 67 83 91 
-0.007004071 0.1851266 0.6350001 68 89 97 
0.008910271 0.180462 0.619 74 91 103 
0.02397121 0.1755058 0.6020001 45 62 65 
0.03803721 0.1699666 0.583 34 34 28 
0.05104641 0.1641358 0.563 47 44 39 
0.06396738 0.1606374 0.551 64 61 58 
0.07783484 0.1603458 0.55 114 110 113 
0.09198534 0.1606374 0.551 128 122 124 
0.1061867 0.1609289 0.552 137 131 135 
0.1237058 0.1655935 0.568 149 143 147 
0.1371741 0.1644274 0.564 109 99 99 
0.1515136 0.1644274 0.564 181 208 248 
0.1664413 0.1650105 0.566 186 213 253 
0.1817901 0.1658851 0.569 184 211 251 
0.1972915 0.1667597 0.572 182 213 250 
0.2118344 0.1667597 0.572 180 209 248 
0.226773 0.1670512 0.573 173 203 233 
0.2413414 0.1670512 0.573 171 199 230 
0.2563563 0.1673427 0.574 182 213 254 
0.2718941 0.1679258 0.576 194 230 255 
0.2910159 0.1705497 0.585 200 239 255 
-0.1013137 0.2010851 0.686 51 61 66 
-0.08216067 0.1969813 0.6720001 85 107 117 
-0.06420376 0.1943432 0.663 98 122 136 
-0.04713297 0.1934638 0.66 71 91 104 
-0.02989281 0.1905325 0.65 60 78 87 
-0.01312001 0.187015 0.638 77 94 106 
0.003042596 0.1834975 0.626 61 74 85 
0.01835273 0.1776349 0.606 48 62 66 
0.03298013 0.1735311 0.592 27 31 26 
0.04592204 0.1659099 0.566 51 48 43 
0.05935336 0.1632717 0.557 56 51 47 
0.07245903 0.1609267 0.549 101 95 97 
0.08673197 0.1615129 0.551 123 117 119 
0.1009238 0.1618061 0.552 137 128 133 
0.1180821 0.166203 0.567 145 141 144 
0.1320305 0.1656167 0.565 139 128 132 
0.1461363 0.1653236 0.564 182 205 238 
0.1604758 0.1653236 0.564 189 219 253 
0.1757452 0.166203 0.567 178 203 239 
0.1915025 0.1673755 0.571 187 216 253 
0.2063808 0.1676686 0.572 180 207 247 
0.2209237 0.1676686 0.572 171 199 232 
0.2358782 0.1679617 0.573 170 198 229 
0.2504466 0.1679617 0.573 175 205 237 
0.2654774 0.1682549 0.574 185 216 253 
0.2820229 0.1694274 0.578 194 230 254 
-0.1109967 0.2039435 0.692 6 9 8 
-0.09178315 0.2004069 0.68 91 115 129 
-0.07296067 0.1962808 0.666 99 121 133 
-0.05569136 0.195102 0.6620001 100 123 140 
-0.03856673 0.1936284 0.657 89 109 120 
-0.02143014 0.1897971 0.6440001 72 88 96 
-0.004970285 0.1865552 0.633 66 84 93 
0.01082479 0.181545 0.6160001 73 93 106 
0.02579842 0.1768296 0.6 46 63 66 
0.03975319 0.17123 0.581 37 37 31 
0.05274183 0.1656304 0.562 47 47 41 
0.06583778 0.1626832 0.552 74 71 68 
0.07972748 0.1623885 0.551 115 111 114 
0.0939066 0.1626832 0.552 129 123 125 
0.1085276 0.1635674 0.555 137 131 135 
0.12529 0.167104 0.567 152 143 148 
0.1387202 0.1659251 0.563 90 89 98 
0.1530342 0.1659251 0.563 175 199 229 
0.1679428 0.1665145 0.565 178 205 247 
0.1832757 0.1673987 0.568 184 213 252 
0.1991093 0.1685775 0.572 182 211 250 
0.2132787 0.1682828 0.571 182 211 252 
0.2281951 0.1685775 0.572 172 202 234 
0.242738 0.1685775 0.572 168 198 228 
0.2577307 0.1688723 0.573 182 213 252 
0.2727742 0.169167 0.574 190 226 252 
0.2918738 0.1718194 0.583 201 241 254 
-0.1013137 0.2032652 0.686 52 64 68 
-0.08216067 0.199117 0.6720001 86 106 117 
-0.06410693 0.1961539 0.6620001 99 123 137 
-0.04713297 0.1955613 0.66 73 93 106 
-0.02989281 0.1925983 0.65 66 84 93 
-0.01309945 0.1887463 0.637 76 96 107 
0.003037735 0.1851906 0.625 58 70 76 
0.01835273 0.1795608 0.606 47 61 65 
0.03298013 0.1754126 0.592 48 56 55 
0.04608431 0.1683012 0.568 51 48 43 
0.05945992 0.1653382 0.558 58 53 49 
0.07272299 0.1632641 0.551 100 94 98 
0.08704679 0.1638567 0.553 119 115 118 
0.1009238 0.1635604 0.552 137 128 133 
0.1178738 0.1677087 0.566 143 139 142 
0.1315631 0.1668197 0.563 132 121 127 
0.1458772 0.1668197 0.563 183 210 248 
0.1604758 0.167116 0.564 185 217 251 
0.1748153 0.167116 0.564 178 205 243 
0.1911671 0.1688939 0.5700001 184 215 254 
0.20602 0.1691902 0.571 177 206 245 
0.2205375 0.1691902 0.571 170 198 229 
0.2354666 0.1694865 0.572 168 198 228 
0.2495724 0.1691902 0.571 172 202 232 
0.2650149 0.1697828 0.573 184 215 252 
0.2805591 0.1703754 0.575 193 231 254 
-0.1111571 0.2064406 0.693 7 10 11 
-0.09164818 0.2022701 0.679 91 115 129 
-0.07285113 0.1980996 0.665 100 122 136 
-0.0555231 0.1966101 0.66 103 126 145 
-0.03856673 0.1957164 0.657 92 112 123 
-0.02139686 0.1915459 0.643 71 87 97 
-0.004962433 0.188269 0.632 68 89 97 
0.01080721 0.1832048 0.615 75 95 106 
0.02579842 0.1787364 0.6 59 75 83 
0.03989003 0.1736722 0.583 34 35 29 
0.05283567 0.1677144 0.563 53 50 45 
0.06595705 0.1647354 0.553 75 72 69 
0.08001687 0.1647354 0.553 114 110 113 
0.09407672 0.1647354 0.553 131 122 125 
0.1087232 0.1656291 0.5560001 137 131 133 
0.124848 0.1683102 0.565 150 141 146 
0.1384738 0.1674165 0.562 171 187 197 
0.1527624 0.1674165 0.562 166 191 214 
0.1676456 0.1680122 0.564 173 200 240 
0.1829531 0.1689059 0.567 183 214 253 
0.1987612 0.1700975 0.571 182 211 250 
0.2129052 0.1697996 0.5700001 180 209 250 
0.2277962 0.1700975 0.571 173 203 235 
0.2423137 0.1700975 0.571 168 198 228 
0.2568311 0.1700975 0.571 182 213 252 
0.2718238 0.1703954 0.572 191 229 254 
0.2903719 0.1727786 0.58 202 242 255 
-0.101166 0.2051459 0.6850001 53 65 71 
-0.0820384 0.2009532 0.671 86 108 120 
-0.06401008 0.1979583 0.661 100 124 138 
-0.04706156 0.1973594 0.659 74 94 109 
-0.02989281 0.194664 0.65 72 84 98 
-0.01307888 0.1904713 0.636 78 98 109 
0.003028014 0.186578 0.623 53 63 70 
0.01832244 0.1811873 0.605 52 66 70 
0.03292442 0.1769945 0.591 54 71 72 
0.04632771 0.1710049 0.571 51 48 45 
0.05956648 0.1674111 0.559 59 54 52 
0.07285498 0.1653147 0.552 98 92 96 
0.08704679 0.1656142 0.553 118 114 117 
0.1011066 0.1656142 0.553 138 129 132 
0.1178738 0.1695074 0.566 145 141 144 
0.1313294 0.1683095 0.562 126 115 121 
0.1456181 0.1683095 0.562 181 209 244 
0.1601913 0.168609 0.563 184 215 252 
0.1745054 0.168609 0.563 178 205 243 
0.1908317 0.1704059 0.569 182 213 252 
0.2056592 0.1707054 0.5700001 177 206 243 
0.2201512 0.1707054 0.5700001 170 198 229 
0.2346433 0.1707054 0.5700001 169 199 229 
0.2491353 0.1707054 0.5700001 170 200 230 
0.2645524 0.1713043 0.572 184 215 252 
0.2795832 0.1716038 0.573 195 233 255 
-0.1135231 0.2089441 0.694 7 10 9 
-0.09394424 0.2047291 0.68 55 72 86 
-0.07507728 0.200514 0.666 99 119 134 
-0.05762064 0.1987076 0.66 108 131 150 
-0.04071661 0.1981055 0.6580001 89 109 122 
-0.02351328 0.1941915 0.645 61 77 85 
-0.006982011 0.1905787 0.633 76 96 107 
0.008867088 0.1854605 0.6160001 75 93 102 
0.02393138 0.1809444 0.601 71 87 97 
0.03823294 0.1764283 0.586 29 33 26 
0.05122775 0.1701058 0.565 60 57 52 
0.06454785 0.1673961 0.5560001 70 67 64 
0.0782594 0.1664929 0.553 111 105 109 
0.09248618 0.166794 0.554 127 123 124 
0.1067638 0.1670951 0.555 136 130 132 
0.1228346 0.1698047 0.564 147 141 145 
0.1366877 0.1692026 0.562 176 192 202 
0.1507077 0.1689015 0.561 167 192 217 
0.1655591 0.1695036 0.563 177 206 245 
0.1801926 0.1698047 0.564 179 206 246 
0.1962567 0.1713101 0.569 183 212 251 
0.2107233 0.1713101 0.569 183 212 251 
0.22519 0.1713101 0.569 172 200 231 
0.2396566 0.1713101 0.569 165 196 223 
0.2545699 0.1716111 0.5700001 175 206 243 
0.2695339 0.1719122 0.571 190 225 254 
0.2860413 0.1731165 0.575 202 242 255 
-0.1061361 0.2085336 0.689 61 75 79 
-0.08668925 0.2039936 0.674 101 124 141 
-0.0683147 0.2003617 0.6620001 56 71 86 
-0.05125027 0.1994537 0.659 95 117 131 
-0.03418135 0.1976378 0.6530001 86 106 119 
-0.01717524 0.1930978 0.638 78 95 107 
-0.0009363631 0.1894659 0.626 65 78 87 
0.01457268 0.1843207 0.609 79 101 111 
0.02931599 0.1797808 0.594 48 65 70 
0.04322179 0.1749382 0.578 38 39 33 
0.05631399 0.1700956 0.562 54 51 46 
0.06972326 0.167977 0.555 84 80 81 
0.08368289 0.1676743 0.554 114 110 113 
0.09776814 0.1676743 0.554 134 125 128 
0.1136705 0.1703983 0.563 139 135 138 
0.1279846 0.1703983 0.563 137 128 133 
0.1420459 0.1700956 0.562 174 202 235 
0.1560564 0.1697929 0.561 186 213 251 
0.1703197 0.1697929 0.561 177 205 240 
0.186228 0.1713062 0.566 185 214 253 
0.2013272 0.1719116 0.568 178 207 246 
0.2157685 0.1719116 0.568 172 202 234 
0.2302097 0.1719116 0.568 169 199 231 
0.2446509 0.1719116 0.568 170 200 230 
0.2604605 0.1728195 0.571 181 212 253 
0.274978 0.1728195 0.571 189 227 252 
-0.1181042 0.2114539 0.6950001 7 10 9 
-0.09855546 0.2074987 0.682 88 105 119 
-0.07954866 0.2032392 0.668 78 95 107 
-0.06181571 0.2008051 0.66 107 130 147 
-0.04489896 0.2001967 0.6580001 75 95 110 
-0.02769862 0.1968499 0.647 63 75 89 
-0.01102285 0.1928946 0.634 80 100 111 
0.004975806 0.1883309 0.619 58 68 73 
0.02017826 0.1834629 0.603 57 69 75 
0.0346849 0.1792034 0.589 56 78 81 
0.0481424 0.1737269 0.571 53 53 49 
0.06145276 0.1703801 0.56 63 58 54 
0.0748796 0.1685546 0.554 98 92 94 
0.08896486 0.1685546 0.554 118 114 117 
0.1032361 0.1688589 0.555 136 127 130 
0.1194612 0.1719014 0.565 147 141 145 
0.1328787 0.1706844 0.561 90 89 100 
0.1471419 0.1706844 0.561 176 204 235 
0.1616928 0.1709886 0.562 176 203 243 
0.1759815 0.1709886 0.562 178 205 243 
0.1919629 0.1725099 0.567 183 212 253 
0.2067427 0.1728141 0.568 174 202 237 
0.2211839 0.1728141 0.568 168 199 226 
0.2356251 0.1728141 0.568 168 199 226 
0.2496261 0.1725099 0.567 171 201 231 
0.2654389 0.1734226 0.5700001 184 215 252 
0.2809131 0.1740311 0.572 194 233 253 
-0.1111571 0.2119466 0.693 59 72 71 
-0.09137823 0.2070532 0.677 80 100 115 
-0.07274158 0.2030773 0.664 101 123 137 
-0.05543898 0.2015481 0.659 105 128 147 
-0.03844932 0.2003247 0.655 93 115 129 
-0.02133031 0.196043 0.641 63 81 90 
-0.004938877 0.1923729 0.629 78 98 109 
0.01077207 0.1874795 0.613 75 97 107 
0.02571242 0.1828919 0.598 75 96 104 
0.03989003 0.1783043 0.583 29 33 28 
0.05302336 0.1727992 0.565 65 60 58 
0.06643413 0.1703525 0.557 74 71 68 
0.08016157 0.169435 0.554 106 102 103 
0.09424683 0.169435 0.554 128 124 125 
0.1093098 0.1709642 0.559 134 128 130 
0.1244061 0.1721875 0.563 141 132 137 
0.1382274 0.1715758 0.561 174 200 227 
0.1522188 0.17127 0.56 173 200 224 
0.1667538 0.1715758 0.561 172 200 233 
0.1816624 0.1721875 0.563 184 211 251 
0.1973689 0.1734109 0.567 182 211 252 
0.2121582 0.1737167 0.568 178 207 246 
0.2262004 0.1734109 0.567 175 205 235 
0.2406162 0.1734109 0.567 168 199 226 
0.2554817 0.1737167 0.568 176 207 246 
0.2703982 0.1740225 0.569 190 225 254 
0.2863667 0.1749401 0.572 200 240 253 
-0.1059821 0.2115107 0.688 61 75 79 
-0.08656063 0.2068993 0.673 104 127 144 
-0.0683147 0.2035176 0.6620001 56 71 86 
-0.0511725 0.2022878 0.6580001 101 122 141 
-0.03407666 0.2001358 0.651 87 109 123 
-0.01714832 0.1958318 0.637 77 94 106 
-0.0009333714 0.1918353 0.624 69 86 98 
0.01454875 0.1869164 0.608 82 106 118 
0.02931599 0.1826124 0.594 82 99 111 
0.04329657 0.178001 0.5790001 36 37 33 
0.05641419 0.1730821 0.563 64 61 58 
0.06984889 0.1709301 0.5560001 80 76 77 
0.08383393 0.1706227 0.555 105 101 104 
0.09794462 0.1706227 0.555 134 128 132 
0.1138724 0.1733896 0.564 139 133 137 
0.1277573 0.1727747 0.562 123 112 118 
0.1415404 0.1721599 0.56 177 205 236 
0.1557782 0.1721599 0.56 185 212 252 
0.170016 0.1721599 0.56 179 204 238 
0.18557 0.1733896 0.564 182 211 250 
0.2006184 0.1740044 0.566 173 202 241 
0.2153886 0.1743119 0.567 171 201 233 
0.2293991 0.1740044 0.566 168 200 232 
0.2437894 0.1740044 0.566 166 197 224 
0.2595482 0.1749267 0.569 181 212 253 
0.2740148 0.1749267 0.569 190 226 252 
-0.1225218 0.2147671 0.6950001 7 10 9 
-0.103343 0.2116769 0.6850001 67 81 87 
-0.08417089 0.2073506 0.671 96 120 134 
-0.06601078 0.2039514 0.66 93 113 128 
-0.04900673 0.2030244 0.657 87 108 125 
-0.0319094 0.2005523 0.649 80 102 116 
-0.0150764 0.196226 0.6350001 81 98 112 
0.001046387 0.1922088 0.622 60 76 86 
0.01642681 0.1872645 0.606 81 103 115 
0.03109871 0.1829383 0.592 55 71 81 
0.04498076 0.178303 0.577 39 40 36 
0.05820346 0.1739768 0.563 63 63 59 
0.0717447 0.1721227 0.557 83 79 80 
0.08559778 0.1715046 0.555 104 100 103 
0.09988812 0.1718137 0.5560001 136 130 134 
0.1156649 0.1742858 0.564 144 135 140 
0.1293129 0.1733587 0.561 98 96 105 
0.1433202 0.1730497 0.56 176 204 235 
0.157558 0.1730497 0.56 174 202 237 
0.1717958 0.1730497 0.56 182 207 241 
0.1873624 0.1742858 0.564 182 211 252 
0.2024172 0.1749038 0.566 175 204 241 
0.2168075 0.1749038 0.566 168 198 228 
0.2311979 0.1749038 0.566 164 196 226 
0.2455882 0.1749038 0.566 170 201 228 
0.2608972 0.1755219 0.568 180 211 252 
0.2758232 0.1758309 0.569 191 229 254 
-0.120313 0.2158715 0.6950001 5 11 9 
-0.1008706 0.2121442 0.683 52 65 74 
-0.08167162 0.2074851 0.668 90 110 123 
-0.06381641 0.2046896 0.659 106 127 144 
-0.0467759 0.2034472 0.655 79 100 117 
-0.02975484 0.2009623 0.647 75 95 108 
-0.01301719 0.1966138 0.633 82 102 115 
0.003013433 0.192576 0.62 56 70 76 
0.01829216 0.1876063 0.604 79 101 113 
0.03286872 0.1832578 0.59 54 70 80 
0.04665225 0.1785987 0.575 44 45 41 
0.05988616 0.1745608 0.562 65 65 61 
0.0735149 0.1730078 0.557 84 80 81 
0.0873616 0.1723865 0.555 111 107 110 
0.101838 0.1730078 0.557 136 130 134 
0.1174573 0.175182 0.564 148 139 144 
0.1308621 0.1739396 0.56 158 182 194 
0.1448408 0.173629 0.559 163 192 218 
0.1593377 0.1739396 0.56 173 198 232 
0.1732655 0.173629 0.559 182 206 245 
0.1891548 0.175182 0.564 180 209 250 
0.204216 0.1758032 0.566 172 202 236 
0.2186063 0.1758032 0.566 166 197 224 
0.232585 0.1754926 0.565 164 196 226 
0.2469499 0.1754926 0.565 168 199 226 
0.2627024 0.1764244 0.568 182 213 254 
0.2771436 0.1764244 0.568 191 229 254 
-0.120313 0.2169758 0.6950001 7 10 9 
-0.1007229 0.2129173 0.682 52 68 76 
-0.08167162 0.2085465 0.668 92 112 125 
-0.06371957 0.2054246 0.6580001 105 126 143 
-0.0467759 0.204488 0.655 79 100 117 
-0.02975484 0.2019904 0.647 75 95 110 
-0.01299662 0.1973075 0.632 82 102 115 
0.003008573 0.193249 0.619 56 73 78 
0.01829216 0.188566 0.604 81 103 115 
0.03286872 0.1841953 0.59 56 72 82 
0.04665225 0.1795124 0.575 41 42 38 
0.05988616 0.1754538 0.562 71 68 65 
0.07364688 0.174205 0.558 84 78 80 
0.0873616 0.1732685 0.555 110 106 109 
0.101838 0.1738929 0.557 136 130 134 
0.1174573 0.1760782 0.564 148 139 144 
0.1308621 0.1748294 0.56 159 186 199 
0.1445817 0.174205 0.558 162 192 215 
0.1593377 0.1748294 0.56 172 197 229 
0.1732655 0.1745172 0.559 180 207 245 
0.1891548 0.1760782 0.564 178 209 250 
0.204216 0.1767026 0.566 172 202 236 
0.2182201 0.1763904 0.565 166 197 224 
0.232585 0.1763904 0.565 164 196 226 
0.2465128 0.1760782 0.564 167 196 224 
0.2622399 0.1770148 0.567 181 212 253 
0.2766556 0.1770148 0.567 192 228 254 
-0.120313 0.2180802 0.6950001 7 10 9 
-0.1007229 0.214001 0.682 52 68 78 
-0.08167162 0.209608 0.668 92 112 125 
-0.06362273 0.2061564 0.657 105 126 143 
-0.04670449 0.205215 0.654 80 101 118 
-0.02970885 0.2027048 0.646 75 97 111 
-0.01297606 0.197998 0.631 82 102 115 
0.003008573 0.1942326 0.619 60 76 84 
0.01826187 0.189212 0.603 86 108 122 
0.03286872 0.1851328 0.59 63 80 92 
0.04665225 0.1804261 0.575 40 40 40 
0.05999272 0.1766607 0.563 74 73 73 
0.07364688 0.1750917 0.558 82 78 79 
0.08751902 0.1744642 0.5560001 109 103 107 
0.1020208 0.1750917 0.558 136 130 134 
0.117249 0.1766607 0.563 150 141 146 
0.1308621 0.1757193 0.56 167 193 211 
0.1445817 0.1750917 0.558 167 194 216 
0.1593377 0.1757193 0.56 172 197 229 
0.1732655 0.1754055 0.559 179 206 244 
0.1891548 0.1769744 0.564 175 209 249 
0.2038551 0.1772882 0.565 174 202 237 
0.2182201 0.1772882 0.565 166 197 224 
0.2321733 0.1769744 0.564 165 195 225 
0.2465128 0.1769744 0.564 168 199 226 
0.2617774 0.177602 0.566 180 211 252 
0.2761677 0.177602 0.566 192 228 254 
-0.120313 0.2191846 0.6950001 5 11 9 
-0.1007229 0.2150847 0.682 52 68 78 
-0.08154936 0.2103541 0.6670001 93 113 128 
-0.06362273 0.2072004 0.657 106 127 144 
-0.04663308 0.2059389 0.6530001 81 100 118 
-0.02970885 0.2037313 0.646 78 100 112 
-0.01297606 0.1990007 0.631 81 101 114 
0.003008573 0.1952162 0.619 61 78 90 
0.01826187 0.1901702 0.603 91 113 127 
0.03286872 0.1860704 0.59 85 105 116 
0.04657111 0.1810244 0.574 38 41 40 
0.05999272 0.1775553 0.563 77 76 78 
0.07364688 0.1759784 0.558 82 78 79 
0.08751902 0.1753477 0.5560001 108 102 106 
0.1020208 0.1759784 0.558 137 131 135 
0.117249 0.1775553 0.563 147 141 145 
0.1306284 0.1762938 0.559 167 194 216 
0.1445817 0.1759784 0.558 172 197 220 
0.1593377 0.1766092 0.56 170 199 227 
0.1732655 0.1762938 0.559 178 205 243 
0.1891548 0.1778707 0.564 175 209 249 
0.2034943 0.1778707 0.564 174 202 237 
0.2182201 0.178186 0.565 166 196 226 
0.2321733 0.1778707 0.564 165 196 223 
0.2460758 0.1775553 0.563 168 199 226 
0.2613148 0.178186 0.565 177 208 247 
0.2756798 0.178186 0.565 192 228 254 
-0.1179343 0.219972 0.694 5 11 9 
-0.09826644 0.2155345 0.68 84 106 120 
-0.07907232 0.2104631 0.664 76 91 106 
-0.06134741 0.2076105 0.655 112 138 156 
-0.04448955 0.2066596 0.652 79 99 114 
-0.02757019 0.2041239 0.6440001 74 91 105 
-0.01091853 0.1990525 0.628 83 103 116 
0.00495169 0.1952489 0.6160001 57 73 81 
0.02011133 0.1904945 0.601 87 109 123 
0.03456712 0.186057 0.587 71 89 98 
0.04831102 0.1816195 0.573 45 45 45 
0.06178198 0.1784499 0.563 82 81 83 
0.07555541 0.1771821 0.559 84 80 81 
0.08944663 0.1765482 0.557 114 108 112 
0.1041662 0.177499 0.56 139 133 137 
0.1188269 0.178133 0.562 144 138 142 
0.1324049 0.1771821 0.559 172 199 223 
0.1460928 0.1765482 0.557 174 203 229 
0.1611174 0.177499 0.56 172 198 225 
0.1750421 0.1771821 0.559 178 205 247 
0.1909473 0.1787669 0.564 175 206 247 
0.2052868 0.1787669 0.564 176 206 240 
0.2196263 0.1787669 0.564 168 198 228 
0.233551 0.1784499 0.563 166 197 224 
0.247865 0.1784499 0.563 168 199 226 
0.2626448 0.1787669 0.564 178 209 250 
0.2769843 0.1787669 0.564 192 228 254 
-0.1157287 0.2210748 0.694 29 40 40 
-0.09568135 0.2156595 0.677 97 123 139 
-0.07673026 0.2108812 0.6620001 75 92 108 
-0.05917528 0.2083328 0.654 116 141 162 
-0.04228733 0.2070585 0.65 81 101 116 
-0.02540461 0.2041916 0.641 64 81 93 
-0.008894281 0.1994133 0.626 85 107 119 
0.006886956 0.1955907 0.614 50 63 72 
0.02194808 0.1908124 0.599 82 102 117 
0.03630852 0.1863527 0.585 55 73 82 
0.04995708 0.181893 0.571 54 54 50 
0.06345832 0.179026 0.562 85 81 82 
0.0774703 0.1783889 0.56 86 82 83 
0.09138057 0.1777518 0.558 123 114 119 
0.1059459 0.1783889 0.56 137 131 135 
0.1201837 0.1783889 0.56 120 115 127 
0.1339414 0.1777518 0.558 172 201 227 
0.147863 0.1774333 0.557 175 205 239 
0.1628971 0.1783889 0.56 172 198 227 
0.1768186 0.1780704 0.559 177 204 246 
0.1927397 0.1796631 0.564 171 202 241 
0.2070792 0.1796631 0.564 177 207 241 
0.2214187 0.1796631 0.564 168 198 228 
0.2349222 0.179026 0.562 168 199 226 
0.2496543 0.1793446 0.563 168 199 226 
0.2644372 0.1796631 0.564 181 212 253 
0.2787767 0.1796631 0.564 194 230 254 
-0.1130324 0.2212172 0.691 59 73 79 
-0.09325348 0.2160949 0.675 96 118 132 
-0.07440091 0.2112928 0.66 101 124 141 
-0.05700951 0.2090518 0.6530001 115 142 164 
-0.04015969 0.2077713 0.649 91 113 127 
-0.02325809 0.2042497 0.638 59 75 85 
-0.006893771 0.2000879 0.625 89 111 123 
0.008809509 0.1959261 0.612 45 58 67 
0.02373229 0.1908038 0.596 78 98 113 
0.03803721 0.186642 0.583 56 76 87 
0.0516811 0.1824802 0.5700001 63 60 57 
0.06512831 0.1795989 0.561 87 83 84 
0.07939155 0.1795989 0.561 90 86 87 
0.09315395 0.1786385 0.558 132 123 128 
0.107918 0.1795989 0.561 141 132 137 
0.1217457 0.1789586 0.559 162 184 196 
0.1354716 0.1783183 0.557 173 202 228 
0.1496331 0.1783183 0.557 173 204 241 
0.1643828 0.1789586 0.559 170 199 227 
0.1789147 0.1792787 0.56 174 201 241 
0.1941872 0.1802392 0.563 176 205 242 
0.2085013 0.1802392 0.563 172 202 236 
0.2232112 0.1805593 0.564 173 203 233 
0.2367083 0.179919 0.562 166 197 224 
0.2509969 0.179919 0.562 169 200 227 
0.2652856 0.179919 0.562 180 211 252 
0.2800717 0.1802392 0.563 196 233 254 
-0.1105155 0.2216717 0.689 74 89 102 
-0.09083833 0.2165241 0.673 54 74 89 
-0.07230338 0.2123416 0.66 98 124 140 
-0.05493423 0.2100895 0.6530001 112 139 161 
-0.03803841 0.2084808 0.648 96 120 134 
-0.02109737 0.2039766 0.634 55 73 82 
-0.004899617 0.2007593 0.624 89 111 123 
0.01071935 0.1962551 0.61 52 65 74 
0.02554043 0.1911074 0.594 80 100 115 
0.03982161 0.1872467 0.582 59 76 90 
0.0534926 0.1833859 0.5700001 75 71 72 
0.06691122 0.1804904 0.561 92 86 88 
0.08117445 0.1804904 0.561 92 88 89 
0.09509743 0.1798469 0.559 139 128 134 
0.1097009 0.1804904 0.561 140 134 138 
0.1233012 0.1795252 0.558 171 198 218 
0.1372418 0.1792034 0.557 162 192 215 
0.1516751 0.1795252 0.558 166 198 232 
0.1661593 0.1798469 0.559 172 201 229 
0.1806944 0.1801686 0.56 177 204 242 
0.1959765 0.1811338 0.563 171 201 235 
0.2099171 0.1808121 0.562 169 199 231 
0.2246047 0.1811338 0.563 170 202 236 
0.2384944 0.1808121 0.562 169 199 229 
0.252783 0.1808121 0.562 170 200 230 
0.2670717 0.1808121 0.562 181 215 253 
0.2813603 0.1808121 0.562 196 235 255 
-0.1078542 0.2217967 0.686 78 98 109 
-0.08830408 0.2166235 0.67 96 116 131 
-0.0699931 0.2127437 0.6580001 78 95 109 
-0.05285894 0.2111271 0.6530001 110 137 157 
-0.0359235 0.2091872 0.647 98 121 138 
-0.01902227 0.2043374 0.632 58 76 85 
-0.002907147 0.2011043 0.622 92 114 126 
0.01259573 0.1962545 0.6070001 53 71 78 
0.02733586 0.1914047 0.592 78 98 113 
0.04152806 0.1875249 0.58 59 76 88 
0.05520708 0.1839684 0.569 86 82 85 
0.06869412 0.1813818 0.561 91 87 88 
0.08295735 0.1813818 0.561 93 89 90 
0.09704728 0.1810585 0.56 146 137 140 
0.1112851 0.1810585 0.56 142 136 140 
0.1250746 0.1804119 0.558 171 198 220 
0.1387624 0.1797652 0.5560001 167 197 218 
0.1534485 0.1804119 0.558 166 196 228 
0.1676355 0.1804119 0.558 173 201 234 
0.1828 0.1813818 0.561 174 201 239 
0.1974145 0.1817051 0.562 170 200 232 
0.2117031 0.1817051 0.562 166 196 226 
0.2259918 0.1817051 0.562 171 203 237 
0.2398529 0.1813818 0.561 168 198 228 
0.2541161 0.1813818 0.561 170 200 230 
0.2683794 0.1813818 0.561 181 212 253 
0.2831464 0.1817051 0.562 196 235 253 
-0.1052119 0.221912 0.683 72 92 103 
-0.08591754 0.2170384 0.668 98 122 136 
-0.06779873 0.2134644 0.657 54 71 85 
-0.05070588 0.2118399 0.652 103 129 147 
-0.03386728 0.2102153 0.647 97 120 137 
-0.01695988 0.2046919 0.6300001 71 91 102 
-0.0009273883 0.2014428 0.62 87 109 121 
0.01450089 0.1968941 0.606 60 77 89 
0.02916793 0.1920205 0.591 71 93 105 
0.04322179 0.1877967 0.578 61 78 90 
0.05701541 0.1848725 0.569 100 96 99 
0.07047702 0.1822733 0.561 94 90 91 
0.0848913 0.1825982 0.562 94 90 91 
0.098827 0.1819483 0.56 147 141 145 
0.1128629 0.1816234 0.559 136 134 143 
0.126848 0.1812985 0.558 172 199 223 
0.1405294 0.1806487 0.5560001 169 199 220 
0.1552219 0.1812985 0.558 165 194 220 
0.1694088 0.1812985 0.558 172 200 231 
0.1849119 0.1825982 0.562 171 199 234 
0.1992006 0.1825982 0.562 171 201 233 
0.2134892 0.1825982 0.562 164 194 224 
0.2273726 0.1822733 0.561 166 198 232 
0.2416358 0.1822733 0.561 166 197 224 
0.2554429 0.1819483 0.56 169 200 227 
0.2701623 0.1822733 0.561 184 215 254 
-0.1228743 0.2275683 0.697 5 11 9 
-0.1027395 0.2223443 0.6810001 65 81 89 
-0.08354369 0.2174469 0.666 100 124 138 
-0.0655107 0.2138554 0.655 92 113 130 
-0.04855918 0.2125494 0.651 99 122 141 
-0.03171273 0.2105904 0.645 93 116 133 
-0.01488646 0.2047135 0.627 71 93 105 
0.001039658 0.201775 0.618 79 101 113 
0.0163726 0.1972041 0.604 68 88 103 
0.03094112 0.1923066 0.589 65 85 98 
0.04490281 0.1880622 0.576 63 80 92 
0.05872036 0.1854502 0.568 114 114 118 
0.07238873 0.1834912 0.562 96 92 95 
0.08667739 0.1834912 0.562 99 95 96 
0.1006067 0.1828382 0.56 148 142 146 
0.1144344 0.1821852 0.558 171 191 204 
0.1283908 0.1818587 0.557 174 201 225 
0.1422964 0.1815322 0.5560001 178 207 235 
0.1569953 0.1821852 0.558 163 192 218 
0.1711822 0.1821852 0.558 172 200 231 
0.186698 0.1834912 0.562 172 200 235 
0.200629 0.1831647 0.561 170 200 232 
0.2152753 0.1834912 0.562 166 195 223 
0.2291555 0.1831647 0.561 166 198 230 
0.2429848 0.1828382 0.56 163 196 223 
0.2572226 0.1828382 0.56 166 197 224 
0.2719452 0.1831647 0.561 187 218 255 
-0.1204861 0.2283478 0.696 9 12 11 
-0.1001322 0.2224422 0.678 55 68 79 
-0.08106031 0.2175209 0.663 88 105 119 
-0.06333221 0.2145682 0.654 112 133 152 
-0.04634742 0.2129277 0.649 93 114 133 
-0.0295249 0.2106311 0.642 87 110 127 
-0.01285267 0.2050537 0.625 72 92 105 
0.002993992 0.2021009 0.6160001 75 92 106 
0.0182013 0.1971796 0.601 94 115 132 
0.0327573 0.1929145 0.588 56 76 87 
0.04657111 0.1883213 0.574 69 86 100 
0.06052551 0.1863528 0.568 119 121 127 
