ply
format ascii 1.0
element vertex 1229
property float32 x
property float32 y
property float32 z
property uchar red
property uchar green
property uchar blue
end_header
-0.003423451 0.008637988 0.436 50 36 28 
-0.002033133 0.008618177 0.435 42 31 22 
-0.0006491718 0.008598364 0.434 36 25 18 
0.0007284334 0.008578553 0.433 34 23 16 
0.002099683 0.00855874 0.432 36 22 16 
0.003464575 0.008538929 0.431 43 27 22 
0.004823112 0.008519117 0.43 56 33 30 
0.006189687 0.008519117 0.43 73 47 43 
0.00753869 0.008499305 0.429 94 66 63 
0.008881337 0.008479493 0.428 118 85 84 
0.01024156 0.008479493 0.428 137 104 107 
0.01160177 0.008479493 0.428 153 122 124 
0.01296199 0.008479493 0.428 164 136 137 
0.01432221 0.008479493 0.428 167 139 140 
0.01575571 0.008519117 0.43 166 138 137 
0.01716211 0.008538929 0.431 157 129 126 
0.01861786 0.008578553 0.433 150 122 119 
0.02008632 0.008618177 0.435 141 115 111 
0.02151814 0.008637988 0.436 130 103 97 
0.02300884 0.008677612 0.438 119 89 82 
0.02445655 0.008697424 0.439 93 58 53 
0.02591062 0.008717236 0.44 70 33 30 
0.02730897 0.008717236 0.44 66 31 26 
0.02870733 0.008717236 0.44 65 35 28 
0.03010569 0.008717236 0.44 60 33 27 
0.03150404 0.008717236 0.44 58 33 26 
0.0329024 0.008717236 0.44 48 29 25 
0.03430076 0.008717236 0.44 35 20 19 
0.03578025 0.008737047 0.441 33 19 15 
0.03718178 0.008737047 0.441 27 18 13 
0.03858331 0.008737047 0.441 29 20 25 
0.03998484 0.008737047 0.441 61 60 62 
0.04138638 0.008737047 0.441 41 41 45 
0.04278791 0.008737047 0.441 37 28 35 
0.04418945 0.008737047 0.441 51 34 36 
0.04559098 0.008737047 0.441 67 44 43 
0.04709908 0.00875686 0.442 91 65 63 
0.04850379 0.00875686 0.442 129 106 101 
0.05002142 0.008776671 0.443 132 113 107 
0.0515454 0.008796483 0.444 108 82 78 
0.05307574 0.008816295 0.445 114 79 76 
0.05461244 0.008836107 0.446 137 112 105 
0.05615549 0.008855919 0.447 147 126 123 
0.0577049 0.00887573 0.448 153 132 131 
0.05926066 0.008895543 0.449 154 133 132 
0.06082278 0.008915354 0.45 152 133 131 
0.06239126 0.008935167 0.451 148 132 129 
0.06396609 0.008954979 0.452 145 129 126 
0.06554727 0.008974791 0.453 141 125 120 
0.06713483 0.008994603 0.454 136 117 111 
0.07295818 0.009569148 0.483 34 19 18 
0.07480166 0.009608771 0.485 28 20 17 
0.07650044 0.009628584 0.486 28 20 17 
0.07804499 0.009628584 0.486 29 24 20 
0.07958953 0.009628584 0.486 36 31 27 
0.08113409 0.009628584 0.486 46 43 40 
0.08267863 0.009628584 0.486 58 54 55 
0.08422318 0.009628584 0.486 73 78 83 
0.08576772 0.009628584 0.486 119 133 139 
-0.07103772 0.01029385 0.481 0 4 0 
-0.06950906 0.01029385 0.481 0 4 0 
-0.06783907 0.01027245 0.48 0 4 0 
-0.06617544 0.01025105 0.479 0 4 0 
-0.06438319 0.01020825 0.477 1 5 0 
-0.06260365 0.01016545 0.475 3 7 2 
-0.0607082 0.01010124 0.472 10 11 7 
-0.05870638 0.01001564 0.468 14 14 8 
-0.05672998 0.009930036 0.464 18 15 10 
-0.05477902 0.009844433 0.46 18 15 10 
-0.05308529 0.009801631 0.458 19 16 11 
-0.05129154 0.009737428 0.455 20 17 12 
-0.04951686 0.009673225 0.452 21 19 11 
-0.04786762 0.009630423 0.45 22 20 12 
-0.04633429 0.009609022 0.449 24 20 13 
-0.0447073 0.00956622 0.447 26 22 15 
-0.04318986 0.00954482 0.446 29 22 16 
-0.04167878 0.009523419 0.445 31 24 18 
-0.04017404 0.009502018 0.444 32 25 19 
-0.03867567 0.009480617 0.443 31 24 18 
-0.03718366 0.009459216 0.442 26 19 13 
-0.03577894 0.009459216 0.442 21 14 8 
-0.03429646 0.009437814 0.441 21 14 8 
-0.03282034 0.009416414 0.44 23 16 10 
-0.03142198 0.009416414 0.44 25 18 12 
-0.02995539 0.009395013 0.439 24 19 15 
-0.02849516 0.009373612 0.438 27 24 19 
-0.02704127 0.009352211 0.437 26 26 22 
-0.02565245 0.009352211 0.437 15 18 17 
-0.02426363 0.009352211 0.437 23 26 25 
-0.02287481 0.009352211 0.437 20 23 22 
-0.02148599 0.009352211 0.437 11 14 13 
-0.02009716 0.009352211 0.437 13 13 13 
-0.01870834 0.009352211 0.437 19 19 19 
-0.01735915 0.009373612 0.438 29 29 29 
-0.01600361 0.009395013 0.439 20 25 30 
-0.01460843 0.009395013 0.439 80 94 98 
-0.01321325 0.009395013 0.439 80 94 98 
-0.01181807 0.009395013 0.439 77 84 90 
-0.0104229 0.009395013 0.439 52 46 50 
-0.009027719 0.009395013 0.439 36 26 24 
-0.007615154 0.009373612 0.438 33 19 15 
-0.006208946 0.009352211 0.437 30 16 12 
-0.004809095 0.00933081 0.436 41 25 20 
-0.003415599 0.009309409 0.435 50 36 28 
-0.002033133 0.009309409 0.435 43 32 23 
-0.0006476761 0.009266607 0.433 38 27 18 
0.0007284334 0.009266607 0.433 35 24 17 
0.002099683 0.009245207 0.432 36 22 16 
0.003464575 0.009223806 0.431 42 26 21 
0.004823112 0.009202404 0.43 56 33 30 
0.006189687 0.009202404 0.43 72 46 42 
0.00753869 0.009181003 0.429 92 64 61 
0.008881337 0.009159603 0.428 117 84 83 
0.01021763 0.009138201 0.427 135 102 103 
0.01157467 0.009138201 0.427 152 121 123 
0.01293171 0.009138201 0.427 162 131 133 
0.01428875 0.009138201 0.427 167 136 138 
0.01571907 0.009181003 0.429 167 136 134 
0.01712229 0.009202404 0.43 159 128 126 
0.01857486 0.009245207 0.432 151 123 120 
0.02004014 0.009288008 0.434 141 115 111 
0.02151814 0.00933081 0.436 130 105 98 
0.02300884 0.009373612 0.438 120 90 83 
0.02445655 0.009395013 0.439 79 42 39 
0.02591062 0.009416414 0.44 70 33 28 
0.02730897 0.009416414 0.44 68 33 28 
0.02870733 0.009416414 0.44 65 35 28 
0.03010569 0.009416414 0.44 58 33 26 
0.03150404 0.009416414 0.44 58 37 32 
0.0329024 0.009416414 0.44 47 33 29 
0.03437871 0.009437814 0.441 32 20 18 
0.03578025 0.009437814 0.441 27 17 15 
0.03718178 0.009437814 0.441 23 15 12 
0.03858331 0.009437814 0.441 23 19 24 
0.03998484 0.009437814 0.441 71 78 84 
0.04138638 0.009437814 0.441 45 55 60 
0.04278791 0.009437814 0.441 59 61 69 
0.04418945 0.009437814 0.441 42 36 40 
0.04559098 0.009437814 0.441 58 41 41 
0.04709908 0.009459216 0.442 70 44 44 
0.04850379 0.009459216 0.442 104 76 73 
0.05002142 0.009480617 0.443 132 111 106 
0.0515454 0.009502018 0.444 131 109 101 
0.05307574 0.009523419 0.445 96 64 60 
0.05461244 0.00954482 0.446 132 105 99 
0.05615549 0.00956622 0.447 144 123 118 
0.0577049 0.009587621 0.448 152 131 128 
0.05939265 0.009630423 0.45 154 133 130 
0.06082278 0.009630423 0.45 153 134 130 
0.06239126 0.009651825 0.451 149 133 130 
0.06396609 0.009673225 0.452 147 131 128 
0.06554727 0.009694626 0.453 142 126 121 
0.06713483 0.009716027 0.454 138 122 115 
0.07310924 0.01035806 0.484 31 16 15 
0.0749559 0.01040086 0.486 28 20 17 
0.07650044 0.01040086 0.486 26 21 17 
0.07820557 0.01042226 0.487 29 24 20 
0.07975329 0.01042226 0.487 36 31 27 
0.08130103 0.01042226 0.487 46 43 40 
0.08267863 0.01040086 0.486 54 53 55 
0.08422318 0.01040086 0.486 77 82 87 
0.08576772 0.01040086 0.486 119 133 139 
-0.07103772 0.01105818 0.481 0 4 0 
-0.06950906 0.01105818 0.481 0 4 0 
-0.06783907 0.01103519 0.48 0 4 0 
-0.06617544 0.0110122 0.479 0 4 0 
-0.06438319 0.01096622 0.477 1 5 0 
-0.06260365 0.01092024 0.475 4 8 3 
-0.0607082 0.01085127 0.472 11 12 8 
-0.05870638 0.01075931 0.468 14 14 8 
-0.05672998 0.01066735 0.464 18 15 10 
-0.05465993 0.0105524 0.459 19 16 11 
-0.05296938 0.01050642 0.457 20 17 12 
-0.05117881 0.01043745 0.454 20 18 10 
-0.04951686 0.01039147 0.452 21 19 11 
-0.04786762 0.01034549 0.45 23 21 13 
-0.04633429 0.0103225 0.449 26 22 15 
-0.0447073 0.01027652 0.447 28 21 15 
-0.04318986 0.01025353 0.446 30 23 17 
-0.04167878 0.01023054 0.445 31 24 18 
-0.04017404 0.01020755 0.444 32 25 19 
-0.03867567 0.01018456 0.443 30 23 17 
-0.03726778 0.01018456 0.443 26 19 13 
-0.03577894 0.01016157 0.442 21 14 8 
-0.03429646 0.01013858 0.441 22 15 9 
-0.03289492 0.01013858 0.441 26 19 13 
-0.03142198 0.01011559 0.44 28 21 15 
-0.02995539 0.0100926 0.439 29 22 16 
-0.02849516 0.01006961 0.438 28 25 20 
-0.02710315 0.01006961 0.438 27 27 23 
-0.02565245 0.01004662 0.437 18 18 18 
-0.02426363 0.01004662 0.437 23 26 25 
-0.02287481 0.01004662 0.437 23 26 25 
-0.02148599 0.01004662 0.437 18 21 20 
-0.02009716 0.01004662 0.437 16 19 18 
-0.01870834 0.01004662 0.437 22 22 22 
-0.01735915 0.01006961 0.438 27 27 27 
-0.01600361 0.0100926 0.439 17 24 28 
-0.01460843 0.0100926 0.439 81 95 99 
-0.01321325 0.0100926 0.439 80 94 98 
-0.01181807 0.0100926 0.439 78 85 91 
-0.0104229 0.0100926 0.439 58 54 57 
-0.009007155 0.01006961 0.438 65 57 54 
-0.007615154 0.01006961 0.438 31 16 15 
-0.006208946 0.01004662 0.437 30 16 12 
-0.004809095 0.01002363 0.436 37 23 17 
-0.003415599 0.01000064 0.435 51 37 29 
-0.002028459 0.009977652 0.434 45 34 25 
-0.0006476761 0.009954662 0.433 40 29 20 
0.0007267511 0.009931672 0.432 36 25 18 
0.002094822 0.009908683 0.431 36 22 16 
0.003464575 0.009908683 0.431 42 26 21 
0.004823112 0.009885692 0.43 56 33 30 
0.006175293 0.009862702 0.429 71 45 41 
0.007521118 0.009839713 0.428 91 63 60 
0.008860585 0.009816722 0.427 117 84 83 
0.0101937 0.009793732 0.426 134 101 102 
0.01154756 0.009793732 0.426 151 120 122 
0.01290142 0.009793732 0.426 161 130 132 
0.01425529 0.009793732 0.426 164 133 135 
0.01568243 0.009839713 0.428 164 133 131 
0.01712229 0.009885692 0.43 159 128 126 
0.01857486 0.009931672 0.432 150 122 119 
0.02004014 0.009977652 0.434 141 115 111 
0.02151814 0.01002363 0.436 131 106 99 
0.02300884 0.01006961 0.438 123 93 86 
0.02451226 0.01011559 0.44 78 40 40 
0.02591062 0.01011559 0.44 71 34 29 
0.02730897 0.01011559 0.44 66 31 26 
0.02870733 0.01011559 0.44 63 36 30 
0.03017411 0.01013858 0.441 59 38 35 
0.03157564 0.01013858 0.441 64 50 46 
0.03297718 0.01013858 0.441 40 30 28 
0.03437871 0.01013858 0.441 32 22 20 
0.03578025 0.01013858 0.441 24 19 15 
0.03718178 0.01013858 0.441 18 15 12 
0.03858331 0.01013858 0.441 18 18 22 
0.03998484 0.01013858 0.441 71 78 86 
0.04148023 0.01016157 0.442 46 58 64 
0.04288494 0.01016157 0.442 54 61 69 
0.04428965 0.01016157 0.442 40 39 46 
0.04569437 0.01016157 0.442 64 55 60 
0.04709908 0.01016157 0.442 63 41 43 
0.04861353 0.01018456 0.443 79 51 50 
0.05013433 0.01020755 0.444 122 94 91 
0.0516615 0.01023054 0.445 127 105 97 
0.05319501 0.01025353 0.446 90 59 57 
0.05461244 0.01025353 0.446 125 93 89 
0.05615549 0.01027652 0.447 143 121 113 
0.0578337 0.0103225 0.449 151 130 125 
0.05939265 0.01034549 0.45 152 131 128 
0.06095794 0.01036848 0.451 151 135 130 
0.0625296 0.01039147 0.452 150 134 131 
0.06396609 0.01039147 0.452 149 133 130 
0.06554727 0.01041446 0.453 144 128 123 
0.06713483 0.01043745 0.454 143 124 118 
0.07250503 0.01103519 0.48 34 17 17 
0.0749559 0.01117313 0.486 28 20 17 
0.07665785 0.01119612 0.487 24 19 15 
0.07820557 0.01119612 0.487 29 24 20 
0.07975329 0.01119612 0.487 36 31 27 
0.08130103 0.01119612 0.487 44 41 38 
0.08284875 0.01119612 0.487 53 52 54 
0.08439648 0.01119612 0.487 70 77 83 
0.0859442 0.01119612 0.487 111 125 131 
-0.07103772 0.01182251 0.481 1 5 0 
-0.06936455 0.01179793 0.48 0 4 0 
-0.06783907 0.01179793 0.48 1 5 0 
-0.06617544 0.01177335 0.479 0 4 0 
-0.06438319 0.01172419 0.477 1 5 0 
-0.06260365 0.01167504 0.475 4 8 3 
-0.0607082 0.0116013 0.472 11 12 6 
-0.05870638 0.01150298 0.468 14 14 8 
-0.05660772 0.01138009 0.463 17 17 11 
-0.05454085 0.01125719 0.458 19 16 11 
-0.05296938 0.01123261 0.457 20 17 12 
-0.05117881 0.01115888 0.454 20 18 10 
-0.04951686 0.01110972 0.452 21 19 11 
-0.04786762 0.01106056 0.45 24 20 13 
-0.04633429 0.01103598 0.449 26 22 15 
-0.04480731 0.0110114 0.448 29 22 16 
-0.04318986 0.01096224 0.446 30 23 17 
-0.04167878 0.01093767 0.445 31 24 18 
-0.04026453 0.01093767 0.445 32 25 19 
-0.03876298 0.01091309 0.444 30 23 17 
-0.03726778 0.01088851 0.443 26 19 13 
-0.03577894 0.01086393 0.442 22 15 9 
-0.03429646 0.01083935 0.441 23 16 10 
-0.03289492 0.01083935 0.441 28 21 15 
-0.03142198 0.01081477 0.44 31 24 18 
-0.02995539 0.01079019 0.439 37 30 24 
-0.02856021 0.01079019 0.439 37 30 24 
-0.02710315 0.01076561 0.438 32 29 26 
-0.02565245 0.01074103 0.437 22 22 22 
-0.02426363 0.01074103 0.437 23 26 25 
-0.02287481 0.01074103 0.437 25 28 27 
-0.02148599 0.01074103 0.437 23 26 25 
-0.02009716 0.01074103 0.437 18 21 20 
-0.01870834 0.01074103 0.437 22 25 24 
-0.01735915 0.01076561 0.438 25 28 29 
-0.01596715 0.01076561 0.438 34 44 49 
-0.01460843 0.01079019 0.439 81 93 97 
-0.01321325 0.01079019 0.439 82 94 98 
-0.01181807 0.01079019 0.439 83 82 89 
-0.01039915 0.01076561 0.438 63 57 59 
-0.009007155 0.01076561 0.438 66 54 52 
-0.007597768 0.01074103 0.437 35 19 16 
-0.006208946 0.01074103 0.437 29 15 11 
-0.004809095 0.01071645 0.436 36 22 16 
-0.003415599 0.01069188 0.435 51 37 29 
-0.002028459 0.0106673 0.434 47 36 27 
-0.0006476761 0.01064272 0.433 40 29 20 
0.0007267511 0.01061814 0.432 36 25 18 
0.002094822 0.01059356 0.431 37 23 17 
0.003456537 0.01056898 0.43 42 26 21 
0.004811896 0.0105444 0.429 56 33 30 
0.006175293 0.0105444 0.429 72 46 42 
0.007521118 0.01051982 0.428 91 63 60 
0.008839835 0.01047066 0.426 114 81 82 
0.01016977 0.01044608 0.425 132 99 100 
0.01152045 0.01044608 0.425 148 117 117 
0.01287114 0.01044608 0.425 160 129 129 
0.01422182 0.01044608 0.425 161 130 130 
0.01564579 0.01049524 0.427 164 133 131 
0.01708247 0.0105444 0.429 160 130 125 
0.01853186 0.01059356 0.431 148 120 117 
0.02004014 0.0106673 0.434 141 115 111 
0.02151814 0.01071645 0.436 135 110 103 
0.02306137 0.01079019 0.439 120 90 85 
0.02451226 0.01081477 0.44 76 41 38 
0.02591062 0.01081477 0.44 71 34 31 
0.02737104 0.01083935 0.441 66 31 26 
0.02877257 0.01083935 0.441 62 37 30 
0.03017411 0.01083935 0.441 63 48 47 
0.03157564 0.01083935 0.441 68 58 56 
0.03297718 0.01083935 0.441 40 32 29 
0.03437871 0.01083935 0.441 33 28 24 
0.03578025 0.01083935 0.441 23 20 17 
0.03718178 0.01083935 0.441 15 12 9 
0.0386708 0.01086393 0.442 14 17 20 
0.04007551 0.01086393 0.442 33 38 47 
0.04148023 0.01086393 0.442 38 45 53 
0.04288494 0.01086393 0.442 41 48 56 
0.04428965 0.01086393 0.442 34 36 44 
0.04569437 0.01086393 0.442 89 88 95 
0.04720563 0.01088851 0.443 61 45 50 
0.04861353 0.01088851 0.443 70 42 43 
0.05013433 0.01091309 0.444 96 63 62 
0.0516615 0.01093767 0.445 128 103 96 
0.05319501 0.01096224 0.446 99 72 66 
0.05461244 0.01096224 0.446 111 76 73 
0.05628112 0.0110114 0.448 138 113 106 
0.0578337 0.01103598 0.449 148 127 122 
0.05939265 0.01106056 0.45 151 130 125 
0.06095794 0.01108514 0.451 151 135 130 
0.0625296 0.01110972 0.452 151 135 132 
0.0641076 0.0111343 0.453 150 134 131 
0.06569197 0.01115888 0.454 145 129 126 
0.06713483 0.01115888 0.454 145 126 122 
0.07235397 0.01177335 0.479 35 18 18 
0.0749559 0.01194541 0.486 28 20 17 
0.07665785 0.01196998 0.487 24 19 15 
0.07836616 0.01199456 0.488 29 24 20 
0.07991707 0.01199456 0.488 37 32 28 
0.08146797 0.01199456 0.488 44 41 38 
0.08301887 0.01199456 0.488 54 53 55 
0.08439648 0.01196998 0.487 69 76 82 
0.08612068 0.01199456 0.488 112 126 130 
-0.06936455 0.01256067 0.48 0 4 0 
-0.06783907 0.01256067 0.48 1 5 0 
-0.06617544 0.0125345 0.479 0 4 0 
-0.06438319 0.01248217 0.477 1 5 0 
-0.06260365 0.01242983 0.475 4 8 3 
-0.0607082 0.01235133 0.472 11 12 6 
-0.05858094 0.01222049 0.467 16 16 10 
-0.05660772 0.01211581 0.463 17 17 11 
-0.05454085 0.01198497 0.458 19 17 9 
-0.05117881 0.0118803 0.454 20 18 10 
-0.04951686 0.01182797 0.452 22 20 12 
-0.04786762 0.01177563 0.45 26 22 15 
-0.04633429 0.01174946 0.449 26 22 15 
-0.04480731 0.01172329 0.448 30 23 17 
-0.04318986 0.01167096 0.446 31 24 18 
-0.04177243 0.01167096 0.446 31 24 18 
-0.04026453 0.01164479 0.445 32 25 19 
-0.03876298 0.01161862 0.444 31 24 18 
-0.03726778 0.01159245 0.443 26 19 13 
-0.03577894 0.01156629 0.442 25 16 11 
-0.03437423 0.01156629 0.442 23 16 10 
-0.03289492 0.01154012 0.441 30 21 16 
-0.03142198 0.01151395 0.44 36 27 22 
-0.03002362 0.01151395 0.44 43 32 27 
-0.02856021 0.01148778 0.439 43 34 29 
-0.02710315 0.01146161 0.438 40 32 29 
-0.02571115 0.01146161 0.438 32 29 26 
-0.02426363 0.01143544 0.437 26 26 22 
-0.02287481 0.01143544 0.437 27 31 26 
-0.02148599 0.01143544 0.437 25 28 27 
-0.02009716 0.01143544 0.437 21 24 23 
-0.01870834 0.01143544 0.437 25 28 27 
-0.01731952 0.01143544 0.437 23 28 33 
-0.01596715 0.01146161 0.438 68 78 83 
-0.01457515 0.01146161 0.438 82 92 95 
-0.01318315 0.01146161 0.438 84 90 92 
-0.01179115 0.01146161 0.438 78 69 74 
-0.01039915 0.01146161 0.438 66 55 59 
-0.009007155 0.01146161 0.438 58 41 41 
-0.007597768 0.01143544 0.437 39 23 20 
-0.006194738 0.01140928 0.436 30 16 12 
-0.004798065 0.01138311 0.435 39 23 18 
-0.003407747 0.01135694 0.434 52 36 31 
-0.002023786 0.01133077 0.433 48 37 28 
-0.0006461802 0.0113046 0.432 41 30 21 
0.0007250689 0.01127844 0.431 38 27 20 
0.002094822 0.01127844 0.431 38 24 18 
0.003456537 0.01125227 0.43 43 27 22 
0.004811896 0.0112261 0.429 56 33 30 
0.006160899 0.01119993 0.428 71 45 41 
0.007503544 0.01117376 0.427 92 64 61 
0.008819084 0.01112143 0.425 113 80 81 
0.01016977 0.01112143 0.425 130 97 100 
0.01149335 0.01109526 0.424 146 115 117 
0.01284085 0.01109526 0.424 158 127 129 
0.01422182 0.01112143 0.425 159 128 128 
0.01560915 0.0111476 0.426 161 128 127 
0.01704265 0.01119993 0.428 160 130 125 
0.01853186 0.01127844 0.431 148 121 115 
0.01999397 0.01133077 0.433 142 116 112 
0.02151814 0.01140928 0.436 137 111 107 
0.02306137 0.01148778 0.439 117 90 84 
0.02451226 0.01151395 0.44 82 50 46 
0.02596951 0.01154012 0.441 68 33 30 
0.02737104 0.01154012 0.441 63 31 27 
0.02877257 0.01154012 0.441 62 39 36 
0.03017411 0.01154012 0.441 64 54 52 
0.03157564 0.01154012 0.441 73 63 61 
0.03297718 0.01154012 0.441 42 34 31 
0.03437871 0.01154012 0.441 38 38 34 
0.03578025 0.01154012 0.441 26 23 20 
0.03718178 0.01154012 0.441 14 10 11 
0.0386708 0.01156629 0.442 15 15 17 
0.04007551 0.01156629 0.442 23 28 35 
0.04148023 0.01156629 0.442 34 39 46 
0.04288494 0.01156629 0.442 38 40 50 
0.04428965 0.01156629 0.442 36 38 48 
0.04569437 0.01156629 0.442 90 97 103 
0.04720563 0.01159245 0.443 91 87 92 
0.04872327 0.01161862 0.444 65 41 43 
0.05013433 0.01161862 0.444 82 51 49 
0.0516615 0.01164479 0.445 125 98 92 
0.05319501 0.01167096 0.446 118 91 85 
0.05473489 0.01169712 0.447 106 71 68 
0.05628112 0.01172329 0.448 136 109 103 
0.0578337 0.01174946 0.449 148 125 120 
0.05952463 0.0118018 0.451 148 127 122 
0.0610931 0.01182797 0.452 151 132 128 
0.06266794 0.01185413 0.453 151 135 132 
0.06424913 0.0118803 0.454 150 134 131 
0.06569197 0.0118803 0.454 147 131 128 
0.0672827 0.01190647 0.455 148 127 124 
0.07220292 0.01250833 0.478 36 19 19 
0.0749559 0.01271768 0.486 28 20 17 
0.07681525 0.01277002 0.488 24 19 15 
0.07836616 0.01277002 0.488 30 25 21 
0.07991707 0.01277002 0.488 38 33 29 
0.08146797 0.01277002 0.488 46 43 38 
0.08301887 0.01277002 0.488 54 53 55 
0.08456978 0.01277002 0.488 72 79 85 
0.08612068 0.01277002 0.488 112 129 132 
-0.06950906 0.01335117 0.481 1 5 0 
-0.06783907 0.01332341 0.48 1 5 0 
-0.06617544 0.01329565 0.479 1 5 0 
-0.06451816 0.0132679 0.478 1 5 0 
-0.06260365 0.01318462 0.475 4 8 3 
-0.0607082 0.01310135 0.472 12 13 7 
-0.05858094 0.01296257 0.467 16 16 10 
-0.05648546 0.01282378 0.462 17 18 9 
-0.05465993 0.01274051 0.459 17 18 9 
-0.05117881 0.01260173 0.454 21 19 11 
-0.04951686 0.01254621 0.452 23 19 12 
-0.04786762 0.0124907 0.45 26 22 15 
-0.04633429 0.01246294 0.449 27 23 16 
-0.04480731 0.01243518 0.448 30 23 17 
-0.04318986 0.01237967 0.446 33 24 19 
-0.04177243 0.01237967 0.446 32 23 18 
-0.04026453 0.01235191 0.445 33 24 19 
-0.03876298 0.01232415 0.444 32 23 18 
-0.03726778 0.0122964 0.443 30 21 16 
-0.03577894 0.01226864 0.442 26 17 12 
-0.03437423 0.01226864 0.442 26 17 12 
-0.03289492 0.01224088 0.441 31 22 17 
-0.03142198 0.01221313 0.44 39 28 23 
-0.03002362 0.01221313 0.44 46 35 30 
-0.02856021 0.01218537 0.439 47 36 31 
-0.02710315 0.01215761 0.438 47 38 33 
-0.02571115 0.01215761 0.438 44 36 33 
-0.02426363 0.01212985 0.437 36 31 27 
-0.02287481 0.01212985 0.437 30 30 24 
-0.02148599 0.01212985 0.437 29 30 26 
-0.02009716 0.01212985 0.437 26 26 26 
-0.01870834 0.01212985 0.437 25 25 27 
-0.01731952 0.01212985 0.437 57 59 67 
-0.01596715 0.01215761 0.438 71 76 83 
-0.01457515 0.01215761 0.438 82 81 88 
-0.01318315 0.01215761 0.438 82 78 83 
-0.01179115 0.01215761 0.438 75 64 70 
-0.01039915 0.01215761 0.438 66 51 52 
-0.008986589 0.01212985 0.437 58 38 39 
-0.007597768 0.01212985 0.437 46 27 25 
-0.006194738 0.0121021 0.436 40 26 22 
-0.004798065 0.01207434 0.435 41 27 21 
-0.003407747 0.01204658 0.434 51 35 30 
-0.002023786 0.01201883 0.433 50 36 28 
-0.0006461802 0.01199107 0.432 42 31 22 
0.0007250689 0.01196331 0.431 39 28 21 
0.002089962 0.01193555 0.43 38 24 18 
0.003448498 0.0119078 0.429 44 28 23 
0.00480068 0.01188004 0.428 56 33 30 
0.006146504 0.01185228 0.427 71 45 43 
0.007485972 0.01182453 0.426 91 63 62 
0.008819084 0.01179677 0.425 112 79 80 
0.01014584 0.01176901 0.424 129 98 100 
0.01149335 0.01176901 0.424 145 114 116 
0.01284085 0.01176901 0.424 155 122 125 
0.01418836 0.01176901 0.424 158 125 128 
0.01560915 0.01182453 0.426 159 126 127 
0.01704265 0.01188004 0.428 160 130 125 
0.01848886 0.01193555 0.43 151 124 118 
0.01999397 0.01201883 0.433 143 118 111 
0.02151814 0.0121021 0.436 138 113 106 
0.02306137 0.01218537 0.439 119 89 84 
0.02451226 0.01221313 0.44 88 56 52 
0.02596951 0.01224088 0.441 65 30 27 
0.02737104 0.01224088 0.441 65 34 32 
0.02877257 0.01224088 0.441 64 45 43 
0.03017411 0.01224088 0.441 68 58 56 
0.03157564 0.01224088 0.441 75 65 63 
0.03297718 0.01224088 0.441 41 36 32 
0.03437871 0.01224088 0.441 42 42 38 
0.03578025 0.01224088 0.441 35 32 29 
0.03726609 0.01226864 0.442 14 11 8 
0.0386708 0.01226864 0.442 13 13 15 
0.04007551 0.01226864 0.442 24 26 32 
0.04148023 0.01226864 0.442 35 37 43 
0.04288494 0.01226864 0.442 37 39 47 
0.04428965 0.01226864 0.442 39 43 55 
0.04579775 0.0122964 0.443 95 102 110 
0.04720563 0.0122964 0.443 98 100 106 
0.04872327 0.01232415 0.444 59 42 44 
0.05024725 0.01235191 0.445 74 46 45 
0.05177759 0.01237967 0.446 113 83 78 
0.05319501 0.01237967 0.446 122 92 87 
0.05473489 0.01240743 0.447 107 75 71 
0.05628112 0.01243518 0.448 130 98 94 
0.05796251 0.0124907 0.45 145 122 117 
0.05952463 0.01251845 0.451 147 126 121 
0.0610931 0.01254621 0.452 151 132 128 
0.06266794 0.01257397 0.453 152 136 133 
0.06424913 0.01260173 0.454 151 135 132 
0.06598137 0.01265724 0.456 149 133 130 
0.06787419 0.01274051 0.459 150 129 126 
0.07220292 0.0132679 0.478 34 19 18 
0.0749559 0.01348995 0.486 28 20 17 
0.07681525 0.01354547 0.488 24 19 15 
0.07852675 0.01357322 0.489 30 25 21 
0.08008082 0.01357322 0.489 41 38 33 
0.08163491 0.01357322 0.489 46 43 40 
0.08318899 0.01357322 0.489 54 53 55 
0.08456978 0.01354547 0.488 68 78 83 
0.08629715 0.01357322 0.489 112 129 132 
-0.06950906 0.0141155 0.481 1 5 0 
-0.06783907 0.01408615 0.48 1 5 0 
-0.06617544 0.0140568 0.479 1 5 0 
-0.06451816 0.01402746 0.478 1 5 0 
-0.06260365 0.01393942 0.475 4 8 3 
-0.0607082 0.01385138 0.472 12 13 7 
-0.05858094 0.01370465 0.467 15 16 10 
-0.05648546 0.01355792 0.462 17 18 9 
-0.05454085 0.01344053 0.458 17 18 9 
-0.05106608 0.0132938 0.453 22 18 11 
-0.04940731 0.01323511 0.451 24 20 13 
-0.04786762 0.01320576 0.45 27 23 16 
-0.04633429 0.01317642 0.449 28 24 17 
-0.04480731 0.01314707 0.448 31 24 16 
-0.0432867 0.01311773 0.447 33 24 17 
-0.04177243 0.01308838 0.446 33 24 17 
-0.04026453 0.01305903 0.445 34 25 18 
-0.03876298 0.01302969 0.444 34 25 18 
-0.03726778 0.01300034 0.443 33 24 17 
-0.03577894 0.012971 0.442 30 21 16 
-0.03437423 0.012971 0.442 31 20 15 
-0.03289492 0.01294165 0.441 33 22 17 
-0.03142198 0.0129123 0.44 39 28 23 
-0.03002362 0.0129123 0.44 45 34 29 
-0.02856021 0.01288296 0.439 47 36 31 
-0.02716503 0.01288296 0.439 52 41 36 
-0.02571115 0.01285361 0.438 54 43 38 
-0.02431915 0.01285361 0.438 55 46 41 
-0.02287481 0.01282427 0.437 48 45 40 
-0.02148599 0.01282427 0.437 39 40 36 
-0.02009716 0.01282427 0.437 46 47 43 
-0.01870834 0.01282427 0.437 58 57 59 
-0.01731952 0.01282427 0.437 72 72 76 
-0.0159307 0.01282427 0.437 74 73 80 
-0.01457515 0.01285361 0.438 80 74 80 
-0.01318315 0.01285361 0.438 83 77 81 
-0.01176423 0.01282427 0.437 75 64 68 
-0.01037541 0.01282427 0.437 70 58 56 
-0.008986589 0.01282427 0.437 60 44 41 
-0.007580382 0.01279492 0.436 53 37 32 
-0.00618053 0.01276557 0.435 51 37 31 
-0.004787035 0.01273623 0.434 44 30 24 
-0.003399895 0.01270688 0.433 50 36 30 
-0.002019112 0.01267753 0.432 50 36 28 
-0.0006446845 0.01264819 0.431 43 32 23 
0.0007233865 0.01261884 0.43 39 28 19 
0.002085101 0.0125895 0.429 38 27 18 
0.00344046 0.01256015 0.428 44 28 21 
0.004789463 0.0125308 0.427 55 34 29 
0.006132109 0.01250146 0.426 72 44 43 
0.007468399 0.01247211 0.425 91 63 62 
0.008798334 0.01244277 0.424 111 78 79 
0.01012191 0.01241342 0.423 127 96 98 
0.01146624 0.01241342 0.423 143 112 114 
0.01281057 0.01241342 0.423 154 121 124 
0.01418836 0.01244277 0.424 158 125 128 
0.01557251 0.01247211 0.425 159 126 127 
0.01700283 0.0125308 0.427 160 129 127 
0.01848886 0.01261884 0.43 155 128 122 
0.01999397 0.01270688 0.433 144 119 112 
0.02151814 0.01279492 0.436 138 113 106 
0.02306137 0.01288296 0.439 119 89 84 
0.02451226 0.0129123 0.44 83 51 47 
0.02596951 0.01294165 0.441 64 31 30 
0.02737104 0.01294165 0.441 64 38 36 
0.02877257 0.01294165 0.441 64 48 45 
0.03017411 0.01294165 0.441 71 61 59 
0.03157564 0.01294165 0.441 76 66 64 
0.03297718 0.01294165 0.441 47 42 40 
0.03437871 0.01294165 0.441 44 45 39 
0.03578025 0.01294165 0.441 42 39 34 
0.03718178 0.01294165 0.441 21 18 15 
0.0386708 0.012971 0.442 16 15 15 
0.04007551 0.012971 0.442 24 27 30 
0.04148023 0.012971 0.442 35 37 43 
0.04288494 0.012971 0.442 37 39 47 
0.04428965 0.012971 0.442 43 49 60 
0.04579775 0.01300034 0.443 96 106 113 
0.04720563 0.01300034 0.443 100 102 108 
0.04872327 0.01302969 0.444 85 70 71 
0.05024725 0.01305903 0.445 72 44 43 
0.05177759 0.01308838 0.446 89 57 51 
0.05319501 0.01308838 0.446 123 93 86 
0.05473489 0.01311773 0.447 113 81 77 
0.05628112 0.01314707 0.448 128 93 90 
0.05796251 0.01320576 0.45 144 118 114 
0.05965661 0.01326446 0.452 147 126 121 
0.06122826 0.0132938 0.453 152 131 128 
0.06280628 0.01332315 0.454 151 135 130 
0.06439064 0.0133525 0.455 152 136 133 
0.06598137 0.01338184 0.456 150 134 131 
0.06846569 0.01358727 0.463 152 131 128 
0.07250503 0.01408615 0.48 34 17 17 
0.0749559 0.01426223 0.486 29 21 18 
0.07681525 0.01432092 0.488 24 19 15 
0.07852675 0.01435027 0.489 31 26 22 
0.08008082 0.01435027 0.489 42 39 36 
0.08163491 0.01435027 0.489 46 43 40 
0.08318899 0.01435027 0.489 54 53 55 
0.08474308 0.01435027 0.489 76 83 89 
0.08629715 0.01435027 0.489 110 127 130 
-0.06783907 0.01484889 0.48 1 5 0 
-0.06617544 0.01481795 0.479 1 5 0 
-0.06451816 0.01478702 0.478 1 5 0 
-0.06260365 0.01469421 0.475 4 8 1 
-0.0607082 0.01460141 0.472 13 13 7 
-0.05858094 0.01444673 0.467 16 16 10 
-0.0563632 0.01426112 0.461 17 18 9 
-0.05454085 0.01416832 0.458 20 18 10 
-0.05285347 0.01410645 0.456 21 19 11 
-0.05106608 0.01401364 0.453 23 19 12 
-0.04940731 0.01395177 0.451 26 22 15 
-0.04786762 0.01392083 0.45 29 25 18 
-0.04633429 0.0138899 0.449 30 26 17 
-0.04480731 0.01385896 0.448 33 26 18 
-0.0432867 0.01382803 0.447 34 25 18 
-0.04177243 0.01379709 0.446 36 27 20 
-0.04026453 0.01376616 0.445 37 28 21 
-0.03876298 0.01373522 0.444 37 28 21 
-0.03726778 0.01370429 0.443 37 28 21 
-0.03577894 0.01367335 0.442 34 25 18 
-0.03437423 0.01367335 0.442 34 23 16 
-0.03289492 0.01364242 0.441 34 23 16 
-0.03149339 0.01364242 0.441 39 28 23 
-0.03002362 0.01361148 0.44 47 33 29 
-0.02856021 0.01358055 0.439 50 36 32 
-0.02716503 0.01358055 0.439 52 41 36 
-0.02571115 0.01354961 0.438 55 44 39 
-0.02431915 0.01354961 0.438 60 49 44 
-0.02287481 0.01351868 0.437 57 50 44 
-0.02148599 0.01351868 0.437 54 51 46 
-0.02009716 0.01351868 0.437 61 61 57 
-0.01866553 0.01348774 0.436 64 61 58 
-0.01731952 0.01351868 0.437 74 70 71 
-0.0159307 0.01351868 0.437 78 72 76 
-0.01454188 0.01351868 0.437 82 73 78 
-0.01315305 0.01351868 0.437 87 78 83 
-0.01176423 0.01351868 0.437 81 69 69 
-0.01037541 0.01351868 0.437 76 62 58 
-0.008966026 0.01348774 0.436 66 50 45 
-0.007580382 0.01348774 0.436 65 51 45 
-0.00618053 0.01345681 0.435 60 49 42 
-0.004787035 0.01342587 0.434 49 35 27 
-0.003399895 0.01339494 0.433 50 36 28 
-0.002014438 0.01333307 0.431 50 36 28 
-0.0006431887 0.01330213 0.43 47 33 25 
0.0007217042 0.01327119 0.429 40 29 20 
0.002080241 0.01324026 0.428 39 28 19 
0.003432421 0.01320932 0.427 45 29 22 
0.004789463 0.01320932 0.427 57 34 29 
0.006117714 0.01314745 0.425 72 44 43 
0.007450826 0.01311652 0.424 91 63 62 
0.008777582 0.01308558 0.423 110 77 78 
0.01009798 0.01305465 0.422 127 96 98 
0.01143913 0.01305465 0.422 139 108 110 
0.01278028 0.01305465 0.422 149 116 119 
0.0141549 0.01308558 0.423 156 123 126 
0.01557251 0.01314745 0.425 159 126 127 
0.01700283 0.01320932 0.427 160 129 127 
0.01844587 0.01327119 0.429 157 130 124 
0.01999397 0.01339494 0.433 144 118 114 
0.02146878 0.01345681 0.435 138 111 105 
0.02300884 0.01354961 0.438 122 92 87 
0.02451226 0.01361148 0.44 85 52 51 
0.02596951 0.01364242 0.441 94 63 61 
0.02737104 0.01364242 0.441 79 56 53 
0.02877257 0.01364242 0.441 64 48 45 
0.03017411 0.01364242 0.441 71 61 59 
0.03157564 0.01364242 0.441 76 66 64 
0.03297718 0.01364242 0.441 58 55 50 
0.03437871 0.01364242 0.441 44 45 39 
0.03578025 0.01364242 0.441 44 45 36 
0.03718178 0.01364242 0.441 38 30 27 
0.0386708 0.01367335 0.442 23 20 17 
0.04007551 0.01367335 0.442 30 30 32 
0.04148023 0.01367335 0.442 34 37 40 
0.04288494 0.01367335 0.442 34 39 46 
0.04428965 0.01367335 0.442 87 96 106 
0.04579775 0.01370429 0.443 100 110 117 
0.0473122 0.01373522 0.444 103 106 109 
0.04872327 0.01373522 0.444 102 87 88 
0.05024725 0.01376616 0.445 77 46 46 
0.05177759 0.01379709 0.446 83 51 47 
0.05331428 0.01382803 0.447 114 82 76 
0.05485734 0.01385896 0.448 116 86 79 
0.05640675 0.0138899 0.449 127 92 89 
0.05796251 0.01392083 0.45 142 115 109 
0.05965661 0.0139827 0.452 147 126 121 
0.06122826 0.01401364 0.453 151 130 127 
0.06280628 0.01404457 0.454 153 134 130 
0.06453216 0.01410645 0.456 154 138 133 
0.06612606 0.01413738 0.457 151 135 132 
0.06846569 0.01432299 0.463 151 130 127 
0.07159872 0.01466328 0.474 34 17 17 
0.0749559 0.0150345 0.486 29 21 18 
0.07697266 0.01512731 0.489 24 19 15 
0.07852675 0.01512731 0.489 33 28 24 
0.08008082 0.01512731 0.489 42 39 36 
0.08163491 0.01512731 0.489 47 44 41 
0.08335911 0.01515824 0.49 56 55 57 
0.08474308 0.01512731 0.489 79 86 92 
0.08629715 0.01512731 0.489 107 124 127 
-0.06950906 0.01564415 0.481 1 5 0 
-0.06783907 0.01561163 0.48 1 5 0 
-0.06617544 0.0155791 0.479 1 5 0 
-0.06451816 0.01554658 0.478 1 5 0 
-0.06273544 0.01548153 0.476 8 9 3 
-0.0607082 0.01535144 0.472 13 13 7 
-0.05845549 0.01515629 0.466 16 16 10 
-0.05624093 0.01496114 0.46 19 17 9 
-0.05442176 0.01486357 0.457 20 18 10 
-0.05262166 0.014766 0.454 22 18 11 
-0.05106608 0.01473347 0.453 24 20 13 
-0.04940731 0.01466843 0.451 27 23 16 
-0.04786762 0.0146359 0.45 30 26 19 
-0.04633429 0.01460338 0.449 33 29 20 
-0.04480731 0.01457085 0.448 36 29 21 
-0.0432867 0.01453833 0.447 37 28 21 
-0.04177243 0.0145058 0.446 38 29 22 
-0.04026453 0.01447328 0.445 39 30 23 
-0.03876298 0.01444076 0.444 40 31 24 
-0.03726778 0.01440823 0.443 41 30 23 
-0.03577894 0.01437571 0.442 41 30 23 
-0.03429646 0.01434318 0.441 38 27 20 
-0.03289492 0.01434318 0.441 36 25 18 
-0.03142198 0.01431066 0.44 42 28 22 
-0.03002362 0.01431066 0.44 48 34 28 
-0.02856021 0.01427814 0.439 50 36 30 
-0.02716503 0.01427814 0.439 54 40 34 
-0.02571115 0.01424561 0.438 58 44 40 
-0.02426363 0.01421309 0.437 62 48 44 
-0.02287481 0.01421309 0.437 60 49 44 
-0.02148599 0.01421309 0.437 57 49 46 
-0.02005118 0.01418056 0.436 64 59 55 
-0.01866553 0.01418056 0.436 67 59 58 
-0.01727989 0.01418056 0.436 76 66 66 
-0.01589425 0.01418056 0.436 79 69 69 
-0.01454188 0.01421309 0.437 84 72 72 
-0.01315305 0.01421309 0.437 87 72 73 
-0.01176423 0.01421309 0.437 78 66 64 
-0.01035167 0.01418056 0.436 75 61 57 
-0.008966026 0.01418056 0.436 69 53 48 
-0.007562996 0.01414804 0.435 70 56 50 
-0.006166322 0.01411551 0.434 63 49 43 
-0.004776005 0.01408299 0.433 51 37 31 
-0.003392043 0.01405047 0.432 50 36 28 
-0.002014438 0.01401794 0.431 51 37 29 
-0.0006431887 0.01398542 0.43 48 34 26 
0.0007217042 0.01395289 0.429 41 30 21 
0.002080241 0.01392037 0.428 41 27 19 
0.003432421 0.01388784 0.427 45 29 22 
0.004778246 0.01385532 0.426 55 34 29 
0.006117714 0.0138228 0.425 72 44 43 
0.007433253 0.01375775 0.423 93 62 62 
0.008756832 0.01372522 0.422 110 77 78 
0.01007405 0.0136927 0.421 127 94 97 
0.01138492 0.01366017 0.42 137 104 107 
0.01275 0.0136927 0.421 148 115 118 
0.01412143 0.01372522 0.422 155 122 125 
0.01553587 0.01379027 0.424 159 126 129 
0.01696301 0.01385532 0.426 159 128 126 
0.01844587 0.01395289 0.429 157 129 126 
0.01994779 0.01405047 0.432 146 118 115 
0.02146878 0.01414804 0.435 138 111 105 
0.02300884 0.01424561 0.438 123 93 88 
0.02451226 0.01431066 0.44 97 66 64 
0.02591062 0.01431066 0.44 94 63 61 
0.02737104 0.01434318 0.441 79 56 53 
0.02877257 0.01434318 0.441 66 47 45 
0.03017411 0.01434318 0.441 70 58 56 
0.03157564 0.01434318 0.441 77 65 63 
0.03297718 0.01434318 0.441 65 60 56 
0.03437871 0.01434318 0.441 45 45 39 
0.03578025 0.01434318 0.441 49 49 43 
0.03718178 0.01434318 0.441 42 34 31 
0.03858331 0.01434318 0.441 29 24 22 
0.04007551 0.01437571 0.442 36 37 33 
0.04148023 0.01437571 0.442 37 37 39 
0.04288494 0.01437571 0.442 29 34 43 
0.04428965 0.01437571 0.442 104 113 123 
0.04579775 0.01440823 0.443 102 112 119 
0.0473122 0.01444076 0.444 111 110 112 
0.04872327 0.01444076 0.444 105 85 86 
0.05036016 0.0145058 0.446 97 69 68 
0.05177759 0.0145058 0.446 83 50 49 
0.05331428 0.01453833 0.447 109 74 69 
0.05485734 0.01457085 0.448 120 90 83 
0.05640675 0.01460338 0.449 126 94 90 
0.05809131 0.01466843 0.451 140 110 105 
0.05965661 0.01470095 0.452 149 126 121 
0.06136343 0.014766 0.454 151 130 127 
0.06294462 0.01479852 0.455 154 135 131 
0.06467368 0.01486357 0.457 155 139 134 
0.06641545 0.01492862 0.459 152 136 131 
0.06861357 0.01509124 0.464 150 129 126 
0.07159872 0.01541648 0.474 34 17 17 
0.07480166 0.01577425 0.485 29 21 18 
0.07697266 0.01590435 0.489 24 19 15 
0.07868733 0.01593687 0.49 34 29 25 
0.08024459 0.01593687 0.49 42 39 36 
0.08180185 0.01593687 0.49 50 47 44 
0.08335911 0.01593687 0.49 62 61 65 
0.08491638 0.01593687 0.49 85 92 98 
0.08647363 0.01593687 0.49 107 124 129 
-0.06950906 0.01640848 0.481 1 5 0 
-0.06783907 0.01637437 0.48 1 5 0 
-0.06617544 0.01634026 0.479 1 5 0 
-0.06451816 0.01630614 0.478 1 5 0 
-0.06273544 0.01623791 0.476 8 9 3 
-0.0607082 0.01610146 0.472 13 13 7 
-0.05845549 0.01589678 0.466 17 17 11 
-0.05611867 0.01565799 0.459 20 18 10 
-0.05430268 0.01555565 0.456 20 18 10 
-0.05262166 0.01548742 0.454 23 19 12 
-0.05095335 0.0154192 0.452 26 22 15 
-0.04940731 0.01538508 0.451 29 25 18 
-0.04786762 0.01535097 0.45 33 29 20 
-0.04633429 0.01531686 0.449 37 30 22 
-0.04480731 0.01528274 0.448 39 30 21 
-0.04318986 0.01521452 0.446 40 31 22 
-0.04177243 0.01521452 0.446 41 32 23 
-0.04026453 0.0151804 0.445 43 34 27 
-0.03876298 0.01514629 0.444 43 34 27 
-0.03726778 0.01511218 0.443 46 35 28 
-0.03577894 0.01507806 0.442 47 36 29 
-0.03429646 0.01504395 0.441 47 33 27 
-0.03289492 0.01504395 0.441 44 30 24 
-0.03142198 0.01500984 0.44 46 30 25 
-0.03002362 0.01500984 0.44 49 33 28 
-0.02856021 0.01497572 0.439 51 35 30 
-0.02710315 0.01494161 0.438 55 39 34 
-0.02571115 0.01494161 0.438 58 42 37 
-0.02426363 0.0149075 0.437 62 46 41 
-0.02287481 0.0149075 0.437 59 45 39 
-0.02143682 0.01487338 0.436 59 48 43 
-0.02005118 0.01487338 0.436 66 55 50 
-0.01866553 0.01487338 0.436 69 58 53 
-0.01727989 0.01487338 0.436 77 62 61 
-0.01589425 0.01487338 0.436 79 62 62 
-0.0145086 0.01487338 0.436 83 63 64 
-0.01312296 0.01487338 0.436 82 60 62 
-0.01173731 0.01487338 0.436 80 61 59 
-0.01035167 0.01487338 0.436 75 56 52 
-0.008945462 0.01483927 0.435 70 54 49 
-0.007562996 0.01483927 0.435 71 57 51 
-0.006166322 0.01480516 0.434 63 49 43 
-0.004764975 0.01473693 0.432 52 38 32 
-0.003384191 0.01470282 0.431 51 37 29 
-0.002009764 0.0146687 0.43 51 37 29 
-0.0006416929 0.01463459 0.429 48 34 26 
0.000720022 0.01460048 0.428 43 29 21 
0.002075381 0.01456636 0.427 42 28 20 
0.003424383 0.01453225 0.426 46 30 23 
0.00476703 0.01449814 0.425 55 34 29 
0.006088925 0.01442991 0.423 72 44 43 
0.007415681 0.0143958 0.422 93 62 62 
0.008736081 0.01436169 0.421 110 77 78 
0.01005012 0.01432757 0.42 125 92 95 
0.01135781 0.01429346 0.419 134 101 104 
0.01271971 0.01432757 0.42 149 113 117 
0.01405451 0.01432757 0.42 154 121 124 
0.01546258 0.0143958 0.422 158 125 128 
0.01692319 0.01449814 0.425 158 127 127 
0.01840287 0.01460048 0.428 157 129 126 
0.01990161 0.01470282 0.431 146 118 115 
0.02141943 0.01480516 0.434 137 110 104 
0.02290378 0.01487338 0.436 125 95 90 
0.02445655 0.01497572 0.439 120 89 87 
0.02591062 0.01500984 0.44 96 65 63 
0.02737104 0.01504395 0.441 81 53 52 
0.02877257 0.01504395 0.441 70 47 44 
0.03017411 0.01504395 0.441 75 56 52 
0.03157564 0.01504395 0.441 78 62 59 
0.03297718 0.01504395 0.441 68 58 56 
0.03437871 0.01504395 0.441 48 43 39 
0.03578025 0.01504395 0.441 51 48 43 
0.03718178 0.01504395 0.441 43 38 34 
0.03858331 0.01504395 0.441 34 31 28 
0.03998484 0.01504395 0.441 39 38 38 
0.04148023 0.01507806 0.442 39 39 41 
0.04288494 0.01507806 0.442 50 55 64 
0.04428965 0.01507806 0.442 109 118 128 
0.04579775 0.01511218 0.443 107 112 121 
0.0473122 0.01514629 0.444 123 114 119 
0.048833 0.0151804 0.445 111 87 89 
0.05036016 0.01521452 0.446 116 88 87 
0.05177759 0.01521452 0.446 102 71 69 
0.05331428 0.01524863 0.447 106 71 68 
0.05485734 0.01528274 0.448 122 92 87 
0.05653237 0.01535097 0.45 127 95 91 
0.05809131 0.01538508 0.451 138 111 105 
0.0597886 0.01545331 0.453 148 125 120 
0.06136343 0.01548742 0.454 151 130 127 
0.06308296 0.01555565 0.456 154 135 131 
0.06467368 0.01558976 0.457 157 138 134 
0.06656015 0.0156921 0.46 154 138 133 
0.06876144 0.01586267 0.465 152 131 128 
0.07159872 0.01616969 0.474 35 18 18 
0.07480166 0.01654493 0.485 29 21 18 
0.07697266 0.01668139 0.489 24 19 15 
0.07868733 0.0167155 0.49 35 30 28 
0.08024459 0.0167155 0.49 42 39 36 
0.08180185 0.0167155 0.49 50 46 47 
0.08335911 0.0167155 0.49 65 65 69 
0.08491638 0.0167155 0.49 96 103 109 
0.08647363 0.0167155 0.49 107 124 129 
-0.06950906 0.01717281 0.481 1 5 0 
-0.06783907 0.01713711 0.48 1 5 0 
-0.06617544 0.01710141 0.479 1 5 0 
-0.06451816 0.0170657 0.478 1 5 0 
-0.06273544 0.0169943 0.476 9 10 4 
-0.0607082 0.01685149 0.472 13 13 7 
-0.05833006 0.01660157 0.465 19 17 9 
-0.05599641 0.01635166 0.458 20 18 10 
-0.05430268 0.01628025 0.456 21 19 11 
-0.05262166 0.01620885 0.454 23 19 12 
-0.05095335 0.01613744 0.452 26 22 15 
-0.04940731 0.01610174 0.451 30 26 19 
-0.04786762 0.01606604 0.45 35 31 22 
-0.04633429 0.01603034 0.449 38 31 23 
-0.0447073 0.01595893 0.447 43 34 25 
-0.04318986 0.01592323 0.446 43 34 25 
-0.04167878 0.01588753 0.445 44 35 26 
-0.04017404 0.01585183 0.444 47 36 27 
-0.03867567 0.01581612 0.443 48 37 30 
-0.03718366 0.01578042 0.442 51 37 31 
-0.03577894 0.01578042 0.442 52 38 32 
-0.03429646 0.01574472 0.441 52 38 32 
-0.03282034 0.01570902 0.44 54 40 34 
-0.03142198 0.01570902 0.44 56 40 35 
-0.02995539 0.01567331 0.439 53 37 32 
-0.02856021 0.01567331 0.439 53 37 32 
-0.02710315 0.01563761 0.438 55 39 34 
-0.02565245 0.01560191 0.437 57 41 36 
-0.02426363 0.01560191 0.437 59 43 38 
-0.02287481 0.01560191 0.437 59 43 38 
-0.02143682 0.01556621 0.436 62 46 41 
-0.02005118 0.01556621 0.436 67 51 46 
-0.01866553 0.01556621 0.436 72 56 51 
-0.01727989 0.01556621 0.436 78 59 55 
-0.01589425 0.01556621 0.436 77 56 53 
-0.0145086 0.01556621 0.436 81 58 55 
-0.01312296 0.01556621 0.436 83 60 57 
-0.01171039 0.0155305 0.435 79 58 55 
-0.01032793 0.0155305 0.435 75 56 52 
-0.008945462 0.0155305 0.435 73 54 50 
-0.007545609 0.0154948 0.434 70 56 50 
-0.006152114 0.0154591 0.433 62 48 42 
-0.004764975 0.0154234 0.432 52 38 32 
-0.003384191 0.0153877 0.431 52 38 32 
-0.002009764 0.01535199 0.43 51 37 29 
-0.0006416929 0.01531629 0.429 48 34 26 
0.0007183396 0.01524489 0.427 43 29 21 
0.00207052 0.01520918 0.426 42 28 20 
0.003416345 0.01517348 0.425 46 30 23 
0.004755813 0.01513778 0.424 55 34 29 
0.006074531 0.01506637 0.422 72 44 43 
0.007398108 0.01503067 0.421 91 63 62 
0.00871533 0.01499497 0.42 110 77 78 
0.0100262 0.01495927 0.419 123 90 91 
0.01133071 0.01492357 0.418 133 100 103 
0.01265914 0.01492357 0.418 147 111 115 
0.01402105 0.01495927 0.419 154 121 124 
0.0153893 0.01499497 0.42 158 125 128 
0.01688337 0.01513778 0.424 158 125 126 
0.01835987 0.01524489 0.427 159 128 126 
0.01985544 0.01535199 0.43 149 121 118 
0.02137008 0.0154591 0.433 138 111 105 
0.02285125 0.0155305 0.435 129 99 94 
0.02440084 0.01563761 0.438 128 103 96 
0.02585173 0.01567331 0.439 118 90 87 
0.02730897 0.01570902 0.44 96 65 63 
0.02877257 0.01574472 0.441 81 53 50 
0.03017411 0.01574472 0.441 81 58 53 
0.03157564 0.01574472 0.441 83 62 59 
0.03297718 0.01574472 0.441 78 62 57 
0.03437871 0.01574472 0.441 59 48 43 
0.03578025 0.01574472 0.441 52 45 39 
0.03718178 0.01574472 0.441 45 40 36 
0.03858331 0.01574472 0.441 37 33 34 
0.03998484 0.01574472 0.441 40 39 41 
0.04138638 0.01574472 0.441 34 32 39 
0.04288494 0.01578042 0.442 99 101 111 
0.04428965 0.01578042 0.442 112 114 124 
0.04579775 0.01581612 0.443 115 108 117 
0.0473122 0.01585183 0.444 119 101 109 
0.04872327 0.01585183 0.444 117 93 95 
0.05036016 0.01592323 0.446 130 104 102 
0.05189368 0.01595893 0.447 122 96 94 
0.05343356 0.01599463 0.448 105 74 72 
0.05497979 0.01603034 0.449 121 89 85 
0.05653237 0.01606604 0.45 128 96 92 
0.05809131 0.01610174 0.451 137 110 104 
0.0597886 0.01617314 0.453 148 125 120 
0.06149859 0.01624455 0.455 152 131 126 
0.06308296 0.01628025 0.456 154 135 131 
0.0648152 0.01635166 0.458 157 138 134 
0.06656015 0.01642306 0.46 154 138 133 
0.06905719 0.01667298 0.467 152 133 129 
0.07159872 0.01692289 0.474 36 19 19 
0.07480166 0.01731562 0.485 29 21 18 
0.07697266 0.01745843 0.489 26 21 17 
0.07868733 0.01749413 0.49 36 31 29 
0.08024459 0.01749413 0.49 43 40 37 
0.08180185 0.01749413 0.49 50 46 49 
0.08335911 0.01749413 0.49 70 73 76 
0.08491638 0.01749413 0.49 93 103 110 
0.08665011 0.01752983 0.491 108 127 131 
-0.06783907 0.01789985 0.48 1 5 0 
-0.06617544 0.01786256 0.479 1 5 0 
-0.06451816 0.01782526 0.478 1 5 0 
-0.06260365 0.01771339 0.475 9 10 4 
-0.0607082 0.01760152 0.472 16 13 8 
-0.05833006 0.01734048 0.465 19 17 9 
-0.05599641 0.01707944 0.458 20 18 10 
-0.05430268 0.01700485 0.456 22 18 11 
-0.05250575 0.01689298 0.453 24 20 13 
-0.05095335 0.01685569 0.452 27 23 16 
-0.04940731 0.0168184 0.451 31 27 18 
-0.04786762 0.01678111 0.45 36 32 21 
-0.04623109 0.01670652 0.448 37 33 22 
-0.0447073 0.01666923 0.447 45 36 27 
-0.04318986 0.01663194 0.446 45 36 27 
-0.04167878 0.01659465 0.445 48 37 28 
-0.04017404 0.01655736 0.444 52 41 32 
-0.03867567 0.01652007 0.443 53 42 33 
-0.03718366 0.01648278 0.442 55 41 33 
-0.035698 0.01644549 0.441 57 43 35 
-0.03429646 0.01644549 0.441 57 43 35 
-0.03282034 0.01640819 0.44 61 47 41 
-0.03142198 0.01640819 0.44 63 47 40 
-0.02995539 0.0163709 0.439 63 47 40 
-0.02849516 0.01633361 0.438 63 47 40 
-0.02710315 0.01633361 0.438 63 47 40 
-0.02565245 0.01629632 0.437 63 47 40 
-0.02426363 0.01629632 0.437 64 48 41 
-0.02282246 0.01625903 0.436 65 49 42 
-0.02143682 0.01625903 0.436 68 49 43 
-0.02005118 0.01625903 0.436 71 52 48 
-0.01862272 0.01622174 0.435 74 55 51 
-0.01724025 0.01622174 0.435 74 55 51 
-0.01585779 0.01622174 0.435 79 58 55 
-0.01447533 0.01622174 0.435 81 58 55 
-0.01309286 0.01622174 0.435 82 59 56 
-0.01171039 0.01622174 0.435 79 58 55 
-0.01032793 0.01622174 0.435 75 56 52 
-0.008924897 0.01618445 0.434 74 55 51 
-0.007528224 0.01614716 0.433 70 54 49 
-0.006137906 0.01610986 0.432 61 47 41 
-0.004753944 0.01607257 0.431 52 41 34 
-0.003376339 0.01603528 0.43 50 39 32 
-0.00200509 0.01599799 0.429 49 38 29 
-0.0006401971 0.0159607 0.428 46 35 26 
0.0007183396 0.01592341 0.427 41 30 21 
0.00206566 0.01584882 0.425 41 30 21 
0.003408306 0.01581153 0.424 45 31 23 
0.004744596 0.01577424 0.423 54 33 28 
0.006060136 0.01569966 0.421 72 44 43 
0.007380535 0.01566237 0.42 91 63 62 
0.00869458 0.01562508 0.419 110 77 78 
0.01000227 0.01558778 0.418 123 90 91 
0.0113036 0.01555049 0.417 133 100 101 
0.01262886 0.01555049 0.417 144 108 110 
0.01395412 0.01555049 0.417 154 121 122 
0.01535266 0.01562508 0.419 156 123 124 
0.01684355 0.01577424 0.423 156 123 124 
0.01831687 0.01588611 0.426 159 128 126 
0.01980926 0.01599799 0.429 154 124 119 
0.02132072 0.01610986 0.432 141 113 110 
0.02279872 0.01618445 0.434 131 103 100 
0.02434513 0.01629632 0.437 131 105 101 
0.02585173 0.0163709 0.439 124 98 94 
0.02730897 0.01640819 0.44 111 80 78 
0.02870733 0.01640819 0.44 86 59 53 
0.03010569 0.01640819 0.44 85 59 55 
0.03150404 0.01640819 0.44 88 62 58 
0.03297718 0.01644549 0.441 87 66 61 
0.03437871 0.01644549 0.441 83 64 60 
0.03578025 0.01644549 0.441 76 62 56 
0.03718178 0.01644549 0.441 60 49 44 
0.03858331 0.01644549 0.441 49 43 47 
0.03998484 0.01644549 0.441 52 51 55 
0.04138638 0.01644549 0.441 87 82 90 
0.04288494 0.01648278 0.442 103 101 108 
0.04428965 0.01648278 0.442 111 104 113 
0.04579775 0.01652007 0.443 116 103 111 
0.0473122 0.01655736 0.444 119 101 107 
0.04872327 0.01655736 0.444 127 105 107 
0.05036016 0.01663194 0.446 138 115 114 
0.05189368 0.01666923 0.447 136 113 110 
0.05343356 0.01670652 0.448 131 105 103 
0.05497979 0.01674382 0.449 120 90 85 
0.05653237 0.01678111 0.45 128 96 92 
0.05809131 0.0168184 0.451 139 108 106 
0.0597886 0.01689298 0.453 149 123 119 
0.06149859 0.01696756 0.455 152 131 126 
0.06308296 0.01700485 0.456 156 137 131 
0.0648152 0.01707944 0.458 157 138 134 
0.06670485 0.01719131 0.461 155 139 134 
0.06905719 0.01741506 0.467 151 132 128 
0.07159872 0.0176761 0.474 36 22 18 
0.07480166 0.0180863 0.485 29 21 18 
0.07697266 0.01823547 0.489 28 23 19 
0.07868733 0.01827276 0.49 37 32 30 
0.08024459 0.01827276 0.49 44 41 38 
0.08180185 0.01827276 0.49 51 47 50 
0.08352923 0.01831005 0.491 77 80 83 
0.08508968 0.01831005 0.491 89 98 108 
0.08665011 0.01831005 0.491 108 126 133 
-0.06783907 0.01866259 0.48 1 5 0 
-0.06617544 0.01862371 0.479 1 5 0 
-0.06451816 0.01858483 0.478 2 6 1 
-0.06247185 0.01842931 0.474 9 10 4 
-0.05599641 0.01780722 0.458 20 18 10 
-0.05430268 0.01772946 0.456 21 19 11 
-0.05250575 0.01761282 0.453 26 22 15 
-0.05095335 0.01757394 0.452 28 24 17 
-0.04929776 0.01749618 0.45 34 30 21 
-0.04776125 0.0174573 0.449 37 33 22 
-0.04623109 0.01741841 0.448 40 33 23 
-0.0447073 0.01737954 0.447 47 38 29 
-0.04318986 0.01734065 0.446 48 37 28 
-0.04167878 0.01730177 0.445 52 41 32 
-0.04017404 0.01726289 0.444 54 43 34 
-0.03867567 0.01722401 0.443 55 44 35 
-0.03718366 0.01718513 0.442 59 45 37 
-0.035698 0.01714625 0.441 62 46 39 
-0.03429646 0.01714625 0.441 64 48 41 
-0.03282034 0.01710737 0.44 66 50 43 
-0.03135056 0.01706849 0.439 69 53 46 
-0.02988715 0.01702961 0.438 69 53 46 
-0.02849516 0.01702961 0.438 71 55 48 
-0.02704127 0.01699073 0.437 70 55 45 
-0.02565245 0.01699073 0.437 71 56 46 
-0.02420811 0.01695185 0.436 71 56 46 
-0.02282246 0.01695185 0.436 72 54 45 
-0.02138765 0.01691297 0.435 73 54 48 
-0.02000519 0.01691297 0.435 73 54 48 
-0.01862272 0.01691297 0.435 76 57 51 
-0.01724025 0.01691297 0.435 80 61 55 
-0.01585779 0.01691297 0.435 81 62 56 
-0.01447533 0.01691297 0.435 80 59 56 
-0.01309286 0.01691297 0.435 82 59 56 
-0.01171039 0.01691297 0.435 79 58 55 
-0.01030418 0.01687409 0.434 76 60 57 
-0.008924897 0.01687409 0.434 74 58 55 
-0.007528224 0.01683521 0.433 70 54 51 
-0.006137906 0.01679633 0.432 61 47 43 
-0.004753944 0.01675745 0.431 53 42 37 
-0.003376339 0.01671857 0.43 50 39 32 
-0.002000416 0.01664081 0.428 49 38 31 
-0.0006387013 0.01660193 0.427 46 35 28 
0.0007166574 0.01656305 0.426 42 31 24 
0.00206566 0.01652417 0.425 41 30 23 
0.003400268 0.0164464 0.423 45 31 25 
0.00473338 0.01640753 0.422 54 33 28 
0.006045741 0.01632976 0.42 69 43 41 
0.007362963 0.01629088 0.419 89 61 60 
0.008673828 0.016252 0.418 105 74 74 
