ply
format ascii 1.0
element vertex 1202
property float32 x
property float32 y
property float32 z
property uchar red
property uchar green
property uchar blue
end_header
-0.06250887 0.1494102 0.486 179 203 231 
-0.05656249 0.150025 0.488 174 196 218 
-0.05056526 0.1506399 0.49 174 196 218 
-0.0444267 0.1509473 0.491 171 194 213 
-0.03834049 0.1515622 0.493 167 193 211 
-0.03233354 0.1527919 0.497 165 191 209 
-0.02606786 0.1530993 0.498 151 174 191 
-0.01981638 0.1537142 0.5 161 184 201 
-0.01362174 0.1555587 0.506 160 186 202 
-0.007246139 0.1567885 0.5100001 154 180 196 
-0.0007628517 0.1567885 0.5100001 133 156 175 
0.005709219 0.156481 0.509 133 156 173 
0.01220372 0.1567885 0.5100001 133 156 173 
0.01872365 0.1570959 0.511 115 135 148 
0.0251703 0.1567885 0.5100001 124 146 158 
0.03146739 0.1558662 0.507 106 126 139 
0.0376882 0.1549439 0.504 124 146 160 
0.04383275 0.1540216 0.501 103 93 91 
0.05000121 0.1534067 0.499 110 101 94 
0.05611883 0.1527919 0.497 110 99 92 
0.06218561 0.152177 0.495 109 98 91 
0.06792486 0.1509473 0.491 102 93 88 
0.07401554 0.1506399 0.49 101 92 87 
0.08024459 0.1506399 0.49 98 88 88 
0.08647363 0.1506399 0.49 120 105 106 
0.09327024 0.1515622 0.493 162 152 150 
0.1015564 0.1546364 0.503 175 170 168 
0.1098823 0.1574033 0.512 175 170 168 
0.1179823 0.1595553 0.5190001 172 164 161 
0.1322612 0.169393 0.551 129 114 113 
0.1412877 0.1718524 0.559 226 255 253 
0.1494557 0.1730821 0.563 217 255 251 
0.1588382 0.1755416 0.571 202 237 252 
0.1678422 0.1773861 0.577 211 251 253 
0.1779097 0.180153 0.586 217 255 255 
0.1888385 0.1835347 0.597 216 255 254 
0.1987309 0.1856867 0.604 216 255 254 
0.21051 0.1893758 0.6160001 220 255 255 
0.2233031 0.1936798 0.6300001 218 255 254 
0.233882 0.1958318 0.637 200 238 250 
0.2434993 0.1970616 0.641 215 255 254 
0.2547885 0.199521 0.649 211 253 254 
-0.2314816 0.2382524 0.771 17 28 28 
-0.126551 0.1588349 0.514 25 42 45 
-0.1188493 0.1572898 0.509 71 90 94 
-0.1101709 0.1541996 0.499 110 132 146 
-0.1027871 0.1526546 0.494 139 167 184 
-0.09592117 0.1517275 0.491 126 147 164 
-0.08913147 0.1508005 0.488 135 156 173 
-0.08224812 0.1495644 0.484 137 156 176 
-0.07593813 0.1492554 0.483 174 195 214 
-0.06979807 0.1492554 0.483 134 154 176 
-0.06392162 0.1498734 0.485 181 205 233 
-0.05799431 0.1504914 0.487 175 197 221 
-0.05201615 0.1511095 0.489 172 194 216 
-0.04598714 0.1517275 0.491 171 194 213 
-0.03990728 0.1523456 0.493 169 194 215 
-0.03384481 0.1532726 0.496 167 193 211 
-0.02765054 0.1538906 0.498 162 185 202 
-0.02136261 0.1541996 0.499 159 185 203 
-0.01516966 0.1557447 0.504 159 185 203 
-0.008849574 0.1572898 0.509 161 184 201 
-0.002383674 0.1575989 0.5100001 137 163 179 
0.004091575 0.1572898 0.509 129 152 171 
0.01056215 0.1572898 0.509 141 164 181 
0.01706619 0.1575989 0.5100001 119 142 159 
0.02359565 0.1579079 0.511 122 144 158 
0.02991499 0.1569808 0.508 114 136 148 
0.03608645 0.1557447 0.504 116 136 149 
0.04232484 0.1551267 0.502 112 117 122 
0.04851237 0.1545087 0.5 109 100 95 
0.05464907 0.1538906 0.498 115 106 99 
0.06073491 0.1532726 0.496 110 101 96 
0.06663474 0.1523456 0.493 105 96 91 
0.07260617 0.1517275 0.491 105 96 91 
0.07868733 0.1514185 0.49 99 91 88 
0.08508968 0.1517275 0.491 103 93 91 
0.09151743 0.1520365 0.492 154 142 140 
0.09916296 0.1541996 0.499 171 167 168 
0.1078322 0.1575989 0.5100001 173 168 166 
0.1161087 0.160071 0.518 176 171 169 
0.1293257 0.1687235 0.546 132 111 108 
0.139012 0.1721227 0.557 223 255 254 
0.1474042 0.1736677 0.562 217 254 255 
0.1564735 0.1758309 0.569 205 238 251 
0.1654331 0.177685 0.575 213 249 255 
0.175146 0.1801571 0.583 217 255 255 
0.1866281 0.1841743 0.596 216 255 254 
0.1958338 0.1857194 0.601 216 255 254 
0.2068595 0.1888096 0.611 218 255 255 
0.2198959 0.1934449 0.626 218 255 254 
0.2307656 0.195917 0.634 214 254 254 
0.2407087 0.1974621 0.6390001 213 255 254 
0.2519472 0.1999342 0.647 208 249 253 
-0.233325 0.2388563 0.7690001 24 32 29 
-0.1284339 0.1599623 0.515 24 38 42 
-0.1207037 0.1584093 0.5100001 71 89 96 
-0.1119808 0.1553032 0.5 95 115 128 
-0.1043571 0.1534396 0.494 145 171 189 
-0.09768014 0.1528184 0.492 123 139 158 
-0.0908682 0.1518865 0.489 141 162 179 
-0.08395942 0.1506441 0.485 101 117 136 
-0.07747315 0.1500229 0.483 177 202 225 
-0.0711854 0.1497123 0.482 127 146 164 
-0.06532801 0.1503335 0.484 177 199 225 
-0.05941977 0.1509547 0.486 175 199 227 
-0.05346068 0.1515759 0.488 172 197 218 
-0.04745074 0.1521971 0.49 168 193 214 
-0.04138995 0.1528184 0.492 172 197 218 
-0.03534973 0.1537502 0.495 167 193 211 
-0.02917453 0.1543714 0.497 167 193 211 
-0.02290249 0.154682 0.498 157 180 199 
-0.01667158 0.1556138 0.501 161 187 205 
-0.01044665 0.1577881 0.508 164 187 204 
-0.004004495 0.1584093 0.5100001 147 173 189 
0.002473931 0.1580987 0.509 129 155 173 
0.008926934 0.1577881 0.508 140 163 180 
0.01541508 0.1580987 0.509 129 157 172 
0.02197165 0.1587199 0.511 110 132 146 
0.02835623 0.1580987 0.509 123 145 157 
0.03462154 0.1571669 0.506 114 134 147 
0.04081057 0.156235 0.503 150 172 184 
0.04692333 0.1553032 0.5 110 101 96 
0.05306638 0.154682 0.498 117 108 101 
0.05927785 0.1543714 0.497 114 105 98 
0.06519993 0.1534396 0.494 110 101 94 
0.07104573 0.1525078 0.491 107 98 93 
0.07728748 0.1525078 0.491 97 92 88 
0.08352923 0.1525078 0.491 99 91 88 
0.08995382 0.1528184 0.492 139 129 129 
0.09718601 0.1543714 0.497 168 164 165 
0.1057949 0.1577881 0.508 176 171 169 
0.1144624 0.1608941 0.518 178 173 171 
0.1259547 0.1674169 0.539 138 119 117 
0.1365026 0.1720759 0.554 220 253 255 
0.1450999 0.1739396 0.56 213 246 248 
0.1535779 0.1754926 0.565 207 243 251 
0.1630366 0.1779775 0.573 210 246 254 
0.1726987 0.1804623 0.581 216 255 255 
0.1838041 0.1841896 0.5930001 216 255 254 
0.1932785 0.1860532 0.599 216 255 254 
0.2035762 0.1885381 0.6070001 216 255 254 
0.216514 0.1931972 0.622 216 255 254 
0.2283899 0.1966138 0.633 216 255 254 
0.2379309 0.1978563 0.637 207 251 254 
0.2487323 0.2000305 0.6440001 204 245 251 
0.2597116 0.2022048 0.651 172 184 200 
-0.2305809 0.2397661 0.768 15 25 28 
-0.1244314 0.1598441 0.512 35 51 61 
-0.1160801 0.1573465 0.504 73 91 100 
-0.1077147 0.1545367 0.495 140 168 183 
-0.1010123 0.1539124 0.493 129 152 171 
-0.09416854 0.1529758 0.49 131 152 169 
-0.0874011 0.1520392 0.487 127 150 167 
-0.08054317 0.1507904 0.483 152 177 198 
-0.07424907 0.1504782 0.482 167 188 205 
-0.06812173 0.1504782 0.482 149 170 189 
-0.06238025 0.1514148 0.485 182 206 236 
-0.05633067 0.151727 0.486 174 199 222 
-0.05035888 0.1523514 0.488 172 197 220 
-0.04433622 0.1529758 0.49 168 193 214 
-0.03834049 0.1539124 0.493 172 194 216 
-0.03226848 0.1548489 0.496 170 192 214 
-0.02601551 0.1551611 0.497 155 178 195 
-0.01977675 0.1557855 0.499 163 189 207 
-0.0135679 0.1573465 0.504 163 189 207 
-0.007217722 0.1585953 0.508 163 186 203 
-0.0007613559 0.1589075 0.509 138 166 181 
0.005698002 0.1585953 0.508 132 155 172 
0.01215587 0.1585953 0.508 146 169 186 
0.01868701 0.1592197 0.5100001 126 149 166 
0.0251703 0.1592197 0.5100001 123 145 159 
0.03146739 0.1582831 0.507 111 135 149 
0.0376882 0.1573465 0.504 117 137 150 
0.04392023 0.1567221 0.502 134 146 150 
0.05000121 0.1557855 0.499 115 106 101 
0.05623175 0.1554733 0.498 119 110 103 
0.06231124 0.1548489 0.496 115 106 99 
0.06820153 0.1539124 0.493 107 98 91 
0.0741666 0.153288 0.491 107 100 94 
0.08040836 0.153288 0.491 95 90 88 
0.08682659 0.1536002 0.492 110 100 100 
0.09327024 0.1539124 0.493 162 150 150 
0.1017583 0.1573465 0.504 172 168 169 
0.1103115 0.1604684 0.514 173 168 166 
0.1198009 0.164527 0.527 174 163 158 
0.1317811 0.1713953 0.549 147 142 152 
0.1407822 0.1738929 0.557 227 255 253 
0.1491903 0.1754538 0.562 219 255 255 
0.1582818 0.1776392 0.569 210 246 255 
0.1675514 0.1798246 0.576 218 255 255 
0.1779097 0.1829465 0.586 216 255 254 
0.1885222 0.1860685 0.596 217 255 255 
0.1980729 0.1879417 0.6020001 216 255 254 
0.2094848 0.1913758 0.613 219 255 255 
0.2222398 0.1957465 0.627 216 255 254 
0.2327805 0.1979319 0.634 209 245 253 
0.2431194 0.1998051 0.64 217 255 255 
0.2540034 0.2019904 0.647 211 253 254 
-0.2351558 0.2406727 0.767 26 32 30 
-0.1281845 0.1612852 0.514 23 37 41 
-0.1199936 0.1590887 0.507 79 95 103 
-0.1115328 0.1562647 0.498 103 127 141 
-0.1041459 0.1546957 0.493 145 170 191 
-0.0974816 0.1540682 0.491 122 141 159 
-0.09068238 0.1531268 0.488 140 163 180 
-0.08378631 0.1518717 0.484 99 116 132 
-0.07731275 0.1512441 0.482 176 201 224 
-0.0711854 0.1512441 0.482 136 155 173 
-0.06519303 0.1515579 0.483 177 199 225 
-0.05929751 0.1521855 0.485 181 205 235 
-0.05335113 0.152813 0.487 174 199 222 
-0.0473539 0.1534406 0.489 169 194 215 
-0.04130583 0.1540682 0.491 175 197 221 
-0.03534973 0.1553233 0.495 171 193 215 
-0.02917453 0.1559509 0.497 171 193 215 
-0.0228565 0.1559509 0.497 155 178 197 
-0.0166383 0.1568922 0.5 163 189 207 
-0.01040553 0.1587749 0.506 167 190 209 
-0.003988791 0.1594025 0.508 155 181 197 
0.002469071 0.1594025 0.508 130 156 174 
0.008926934 0.1594025 0.508 140 163 180 
0.0153848 0.1594025 0.508 140 168 183 
0.02192865 0.1600301 0.5100001 123 145 159 
0.02835623 0.1597163 0.509 126 150 164 
0.03462154 0.1587749 0.506 111 131 144 
0.04081057 0.1578336 0.503 125 149 163 
0.04692333 0.1568922 0.5 115 110 106 
0.05317294 0.1565785 0.499 122 113 106 
0.05927785 0.1559509 0.497 121 112 105 
0.06533191 0.1553233 0.495 114 103 96 
0.07119042 0.154382 0.492 110 101 96 
0.07728748 0.1540682 0.491 100 95 91 
0.08369935 0.154382 0.492 95 90 88 
0.09013665 0.1546957 0.493 131 120 124 
0.09718601 0.1559509 0.497 167 163 164 
0.1060031 0.1597163 0.509 172 169 166 
0.1149044 0.1631679 0.52 177 172 170 
0.1259547 0.1691298 0.539 136 117 115 
0.1362562 0.1735228 0.553 218 255 254 
0.1445817 0.1750917 0.558 213 248 249 
0.1533061 0.1769744 0.564 207 246 251 
0.1627521 0.1794847 0.572 209 248 253 
0.1724015 0.181995 0.58 215 255 255 
0.1831841 0.1854466 0.591 216 255 254 
0.1932785 0.1879569 0.599 214 255 253 
0.2032408 0.1901534 0.606 215 255 253 
0.2161659 0.1948602 0.6210001 216 255 254 
0.2276683 0.197998 0.631 214 255 253 
0.2375574 0.1995669 0.636 205 249 252 
0.2487323 0.2020772 0.6440001 204 243 248 
0.2593127 0.2039599 0.65 217 244 255 
-0.2284792 0.2399992 0.761 11 24 23 
-0.1237023 0.1605251 0.509 59 80 86 
-0.1156195 0.1583175 0.502 77 95 104 
-0.1074971 0.1557945 0.494 133 156 175 
-0.1006025 0.1548484 0.491 136 159 178 
-0.09378418 0.1539023 0.488 131 154 173 
-0.08704216 0.1529562 0.485 137 160 179 
-0.08054317 0.1523254 0.483 131 154 173 
-0.07440311 0.1523254 0.483 171 193 215 
-0.06812173 0.15201 0.482 134 155 174 
-0.06225163 0.1526408 0.484 186 209 242 
-0.05633067 0.1532715 0.486 174 199 222 
-0.05035888 0.1539023 0.488 176 198 222 
-0.04433622 0.154533 0.49 169 194 215 
-0.03826272 0.1551638 0.492 175 197 221 
-0.03220343 0.1561099 0.495 172 194 218 
-0.02601551 0.1567406 0.497 163 186 203 
-0.01973712 0.157056 0.498 167 190 209 
-0.01348714 0.1580021 0.501 167 190 209 
-0.007203515 0.1598944 0.507 167 190 209 
-0.0007613559 0.1605251 0.509 145 171 189 
0.005698002 0.1602097 0.508 132 155 172 
0.01215587 0.1602097 0.508 146 169 186 
0.01865037 0.1605251 0.509 133 159 175 
0.0251703 0.1608405 0.5100001 113 137 151 
0.03146739 0.1598944 0.507 131 155 169 
0.03761343 0.1586329 0.503 117 137 150 
0.04383275 0.1580021 0.501 156 177 185 
0.04990101 0.157056 0.498 117 108 103 
0.05611883 0.1567406 0.497 124 115 110 
0.06243686 0.1567406 0.497 118 111 105 
0.06833987 0.1557945 0.494 110 101 96 
0.0741666 0.1548484 0.491 109 99 97 
0.08024459 0.154533 0.49 98 93 89 
0.08647363 0.154533 0.49 107 99 98 
0.09289186 0.1548484 0.491 155 146 151 
0.1009507 0.1576868 0.5 170 166 167 
0.1100969 0.1617866 0.513 175 170 168 
0.1198009 0.1662018 0.527 168 154 150 
0.131301 0.1725093 0.5470001 201 219 228 
0.1397712 0.1744016 0.553 224 255 255 
0.1483939 0.1762938 0.559 221 255 255 
0.1574473 0.1785014 0.566 211 252 255 
0.1675514 0.1816552 0.576 214 254 254 
0.1776061 0.1844935 0.585 216 255 254 
0.1885222 0.1879626 0.596 213 255 252 
0.1984019 0.1901702 0.603 215 255 254 
0.2081179 0.1920625 0.609 216 255 254 
0.2197586 0.1955316 0.62 215 255 254 
0.2324134 0.1996314 0.633 205 250 250 
0.2427395 0.2015237 0.6390001 216 255 255 
0.254396 0.204362 0.648 210 252 253 
-0.2336228 0.2415255 0.762 20 31 27 
-0.1269376 0.1613339 0.509 24 36 40 
-0.1195203 0.1600661 0.505 78 96 105 
-0.1113089 0.1575304 0.497 110 132 146 
-0.1039346 0.1559456 0.492 142 167 188 
-0.09708453 0.1549947 0.489 122 143 162 
-0.09031073 0.1540438 0.486 141 164 181 
-0.08378631 0.1534099 0.484 120 132 148 
-0.07747315 0.1530929 0.483 177 199 221 
-0.0711854 0.152776 0.482 144 167 184 
-0.06505806 0.152776 0.482 177 199 225 
-0.05929751 0.1537268 0.485 181 207 236 
-0.05335113 0.1543608 0.487 176 198 222 
-0.0473539 0.1549947 0.489 173 198 219 
-0.04130583 0.1556286 0.491 177 199 221 
-0.0352069 0.1562625 0.493 171 193 217 
-0.02905712 0.1568965 0.495 172 194 218 
-0.0228565 0.1575304 0.497 154 177 194 
-0.01660503 0.1581643 0.499 167 193 211 
-0.01034383 0.1594322 0.503 170 193 212 
-0.003980939 0.1607 0.507 157 185 202 
0.002473931 0.1613339 0.509 138 164 182 
0.008926934 0.161017 0.508 136 159 176 
0.0153848 0.161017 0.508 149 175 191 
0.02192865 0.1616509 0.5100001 129 148 166 
0.02835623 0.1613339 0.509 127 150 167 
0.03455311 0.1600661 0.505 107 129 141 
0.04072944 0.1591152 0.502 121 143 157 
0.04682949 0.1581643 0.499 125 132 138 
0.05306638 0.1578474 0.498 124 115 110 
0.05927785 0.1575304 0.497 124 117 111 
0.06546389 0.1572134 0.496 117 110 104 
0.07133511 0.1562625 0.493 111 104 98 
0.07728748 0.1556286 0.491 106 98 95 
0.08352923 0.1556286 0.491 97 89 86 
0.08977099 0.1556286 0.491 130 119 123 
0.09679493 0.1568965 0.495 165 159 161 
0.1051701 0.1600661 0.505 173 168 166 
0.1149044 0.1648205 0.52 177 172 170 
0.1257211 0.1705259 0.538 130 113 113 
0.1352706 0.1740124 0.549 217 255 255 
0.1438043 0.1759142 0.555 218 255 254 
0.1527624 0.178133 0.562 208 248 250 
0.162183 0.1806687 0.5700001 210 252 253 
0.1724015 0.1838383 0.58 215 255 255 
0.1825642 0.186691 0.589 214 255 253 
0.1936011 0.1901775 0.6 214 255 253 
0.2029054 0.1917623 0.605 216 255 254 
0.2133812 0.194298 0.613 215 255 253 
0.2262251 0.1987355 0.627 215 255 254 
0.2371839 0.2012712 0.6350001 205 249 254 
0.2487323 0.2041239 0.6440001 203 242 249 
0.2593127 0.2060257 0.65 216 250 255 
-0.2305943 0.2420992 0.7600001 15 27 29 
-0.1250737 0.1618242 0.508 65 78 87 
-0.1172149 0.1599129 0.502 78 96 103 
-0.1092878 0.1576831 0.495 128 151 168 
-0.1021629 0.1564088 0.491 148 174 192 
-0.0953351 0.1554532 0.488 127 148 167 
-0.08858353 0.1544975 0.485 144 167 186 
-0.08207818 0.1538604 0.483 102 119 133 
-0.07578091 0.1535419 0.482 179 204 229 
-0.06950906 0.1532233 0.481 124 145 162 
-0.06352622 0.1535419 0.482 183 204 233 
-0.05775614 0.1544975 0.485 177 201 229 
-0.0518034 0.1551346 0.487 177 199 223 
-0.04579982 0.1557717 0.489 172 194 216 
-0.03974539 0.1564088 0.491 177 199 223 
-0.03364011 0.1570459 0.493 172 194 218 
-0.02748398 0.1576831 0.495 174 196 220 
-0.02127699 0.1583201 0.497 158 181 198 
-0.01501916 0.1589573 0.499 168 194 212 
-0.008762643 0.16055 0.504 171 194 213 
-0.002374326 0.1618242 0.508 154 182 199 
0.004083537 0.1618242 0.508 133 159 175 
0.01052065 0.1615057 0.507 143 164 181 
0.01699926 0.1618242 0.508 149 175 191 
0.02354948 0.1624613 0.5100001 127 148 167 
0.02991499 0.1618242 0.508 128 152 166 
0.03608645 0.16055 0.504 114 134 149 
0.04224053 0.1595944 0.501 124 146 160 
0.04841535 0.1589573 0.499 115 120 127 
0.05464907 0.1586387 0.498 128 119 114 
0.06085736 0.1583201 0.497 124 117 111 
0.06690506 0.1576831 0.495 120 113 107 
0.07290191 0.1570459 0.493 110 103 97 
0.07884792 0.1564088 0.491 104 96 93 
0.08508968 0.1564088 0.491 97 92 90 
0.09151743 0.1567274 0.492 140 129 135 
0.09896424 0.1586387 0.498 167 164 161 
0.1078322 0.1624613 0.5100001 174 171 168 
0.1174536 0.166921 0.524 174 166 163 
0.1283783 0.172655 0.5420001 179 191 197 
0.137265 0.1752034 0.55 223 255 255 
0.1458305 0.1771147 0.5560001 218 255 254 
0.1548235 0.1793446 0.563 211 251 253 
0.1645699 0.1822115 0.572 213 255 254 
0.1748456 0.185397 0.582 215 255 254 
0.1853755 0.1885826 0.592 214 255 253 
0.1958338 0.1914495 0.601 215 255 254 
0.2051667 0.1930423 0.606 217 255 255 
0.2163831 0.1962278 0.6160001 214 255 253 
0.2289457 0.200369 0.629 212 255 253 
0.2395786 0.2025988 0.636 211 255 254 
0.2511683 0.2054658 0.645 203 241 253 
-0.2387792 0.2442673 0.763 2 9 3 
-0.2278787 0.2429868 0.7590001 10 22 24 
-0.1229732 0.1619912 0.506 80 98 107 
-0.1151588 0.1600703 0.5 92 109 121 
-0.1072794 0.1578293 0.493 128 156 173 
-0.1001927 0.1565488 0.489 141 167 185 
-0.093592 0.1559085 0.487 133 156 175 
-0.08686269 0.1549481 0.484 145 166 183 
-0.08037641 0.1543078 0.482 105 126 145 
-0.07409503 0.1539877 0.481 179 204 225 
-0.06783907 0.1536675 0.48 127 148 165 
-0.06212301 0.1546279 0.483 184 207 240 
-0.05621476 0.1552682 0.485 175 199 227 
-0.05025568 0.1559085 0.487 177 199 225 
-0.04424574 0.1565488 0.489 171 193 215 
-0.03818495 0.1571891 0.491 179 201 227 
-0.03207331 0.1578293 0.493 175 197 221 
-0.02591082 0.1584696 0.495 170 193 212 
-0.01969749 0.1591099 0.497 164 187 204 
-0.0134333 0.1597502 0.499 168 193 214 
-0.007175098 0.161671 0.505 171 194 213 
-0.0007598601 0.1626315 0.508 154 182 199 
0.005698002 0.1626315 0.508 134 157 174 
0.01213194 0.1623113 0.507 145 166 183 
0.01861373 0.1626315 0.508 150 178 193 
0.02512094 0.1629516 0.509 129 148 166 
0.03146739 0.1623113 0.507 127 154 167 
0.0376882 0.1613509 0.504 115 137 151 
0.04383275 0.1603905 0.501 129 150 167 
0.05000121 0.1597502 0.499 115 117 125 
0.05623175 0.15943 0.498 130 123 117 
0.06243686 0.1591099 0.497 130 123 117 
0.06847821 0.1584696 0.495 119 110 105 
0.07446871 0.1578293 0.493 111 104 98 
0.08057212 0.1575092 0.492 100 95 91 
0.08682659 0.1575092 0.492 101 96 92 
0.09345943 0.1581495 0.494 149 140 143 
0.1011526 0.1603905 0.501 169 164 162 
0.1107407 0.1651926 0.516 175 170 168 
0.1202555 0.1693544 0.529 151 134 134 
0.1305809 0.1741565 0.544 215 250 253 
0.1392657 0.1763975 0.551 221 255 255 
0.147863 0.1783183 0.557 217 255 255 
0.1568909 0.1805593 0.564 212 252 252 
0.1672605 0.1840809 0.575 211 253 252 
0.1769988 0.186642 0.583 215 255 254 
0.1875733 0.1898434 0.5930001 214 255 253 
0.1977439 0.1924045 0.601 215 255 254 
0.2077761 0.1946455 0.608 216 255 254 
0.2194042 0.1981671 0.619 212 255 253 
0.2313119 0.2016886 0.6300001 208 253 253 
0.2419798 0.2039296 0.637 216 255 255 
0.2536108 0.2068109 0.646 209 250 255 
-0.2387792 0.2454797 0.763 1 7 5 
-0.2278787 0.2441928 0.7590001 9 21 23 
-0.1227302 0.1624735 0.505 81 99 108 
-0.1149285 0.1605431 0.499 90 111 119 
-0.1070618 0.158291 0.492 128 156 173 
-0.1001927 0.1573258 0.489 144 170 188 
-0.09339982 0.1563606 0.486 136 157 176 
-0.08686269 0.1557172 0.484 145 166 183 
-0.08020966 0.154752 0.481 102 123 140 
-0.07409503 0.154752 0.481 179 204 225 
-0.06783907 0.1544302 0.48 122 143 160 
-0.06199439 0.1550737 0.482 184 207 240 
-0.05621476 0.1560389 0.485 179 200 229 
-0.05015248 0.1563606 0.486 178 200 226 
-0.04424574 0.1573258 0.489 172 194 216 
-0.03818495 0.1579693 0.491 181 203 229 
-0.03200825 0.158291 0.492 175 197 221 
-0.02591082 0.1592562 0.495 171 194 213 
-0.01969749 0.1598996 0.497 163 186 205 
-0.0134333 0.1605431 0.499 169 194 215 
-0.007175098 0.1624735 0.505 172 194 216 
-0.0007583643 0.1631169 0.507 158 184 200 
0.005698002 0.1634387 0.508 136 159 178 
0.01213194 0.1631169 0.507 142 165 182 
0.01857709 0.1631169 0.507 154 182 197 
0.02512094 0.1637604 0.509 131 152 169 
0.03146739 0.1631169 0.507 129 156 169 
0.0376882 0.1621518 0.504 116 138 152 
0.04383275 0.1611866 0.501 127 149 163 
0.05000121 0.1605431 0.499 156 169 178 
0.05634467 0.1605431 0.499 133 124 119 
0.0625625 0.1602214 0.498 131 124 118 
0.06847821 0.1592562 0.495 122 113 108 
0.07461976 0.1589345 0.494 113 106 100 
0.08073588 0.1586127 0.493 106 101 97 
0.08700307 0.1586127 0.493 104 99 97 
0.09364862 0.1592562 0.495 148 139 142 
0.1011526 0.1611866 0.501 166 161 159 
0.1109553 0.1663342 0.517 175 170 168 
0.1202555 0.170195 0.529 144 127 127 
0.1303409 0.1746992 0.543 215 250 253 
0.1390129 0.1769513 0.55 218 255 254 
0.147863 0.1792034 0.557 216 255 254 
0.1568909 0.1814555 0.564 212 252 252 
0.1669696 0.1846728 0.574 209 251 250 
0.1766952 0.1872467 0.582 215 255 254 
0.1872569 0.190464 0.592 215 255 254 
0.1974148 0.1930378 0.6 215 255 254 
0.2077761 0.1956116 0.608 216 255 254 
0.2190497 0.1988289 0.618 212 255 253 
0.2309447 0.202368 0.629 207 252 252 
0.2419798 0.2049418 0.637 215 255 254 
0.2532182 0.2075156 0.645 207 248 254 
-0.2418363 0.2473388 0.765 0 6 4 
-0.2305943 0.2457222 0.7600001 10 24 26 
-0.1243351 0.163276 0.505 76 94 101 
-0.1165144 0.161336 0.499 85 105 116 
-0.1088462 0.1593961 0.493 119 140 157 
-0.1017468 0.1581029 0.489 153 179 197 
-0.09494437 0.1571329 0.486 128 149 168 
-0.08840089 0.1564863 0.484 150 171 188 
-0.08190825 0.1558396 0.482 116 128 144 
-0.07546646 0.155193 0.48 181 202 221 
-0.06936455 0.155193 0.48 143 166 183 
-0.06339443 0.1555163 0.481 183 205 231 
-0.05763705 0.1564863 0.484 185 210 244 
-0.05169703 0.1571329 0.486 179 201 227 
-0.04570616 0.1577795 0.488 172 194 218 
-0.03966444 0.1584262 0.49 181 203 229 
-0.03350363 0.1587495 0.491 174 196 220 
-0.02742845 0.1597195 0.494 175 197 221 
-0.02123418 0.1603661 0.496 157 180 197 
-0.01498907 0.1610127 0.498 172 197 220 
-0.008727871 0.162306 0.502 172 197 218 
-0.002369652 0.1639226 0.507 165 193 210 
0.004083537 0.1642459 0.508 143 166 185 
0.01052065 0.1639226 0.507 135 158 175 
0.0169658 0.1639226 0.507 154 182 197 
0.02345712 0.1642459 0.508 144 167 184 
0.0298561 0.1639226 0.507 127 149 163 
0.03615805 0.163276 0.505 146 173 186 
0.04232484 0.162306 0.502 118 142 156 
0.04841535 0.161336 0.499 145 167 181 
0.0547588 0.161336 0.499 136 126 124 
0.06097981 0.1610127 0.498 137 128 123 
0.06704022 0.1603661 0.496 128 119 112 
0.07319766 0.1600428 0.495 116 109 103 
0.07932968 0.1597195 0.494 114 107 101 
0.08543627 0.1593961 0.493 108 100 99 
0.09207547 0.1600428 0.495 136 127 130 
0.09936168 0.1616594 0.5 164 155 158 
0.1084665 0.1658625 0.513 173 168 166 
0.118126 0.170389 0.527 162 150 148 
0.1279046 0.1745921 0.54 209 241 248 
0.1365163 0.1768554 0.5470001 223 255 255 
0.1453059 0.1791186 0.554 218 255 254 
0.1545485 0.1817051 0.562 212 252 252 
0.1642822 0.184615 0.571 210 252 251 
0.1739443 0.1872016 0.5790001 215 255 254 
0.1838098 0.1897881 0.587 215 255 254 
0.1945304 0.1930213 0.597 215 255 254 
0.2051667 0.1959312 0.606 215 255 253 
0.2160318 0.198841 0.615 212 255 253 
0.2274898 0.2020742 0.625 212 255 253 
0.2388252 0.2049841 0.634 209 254 254 
0.2500001 0.2075706 0.642 197 237 248 
0.2613784 0.2101572 0.65 223 255 255 
-0.2330097 0.2469299 0.7600001 10 25 24 
-0.1240889 0.1637535 0.504 76 94 101 
-0.1165144 0.162129 0.499 86 108 118 
-0.1088462 0.1601795 0.493 115 136 153 
-0.1015387 0.158555 0.488 154 180 198 
-0.09494437 0.1579052 0.486 129 150 169 
-0.08840089 0.1572554 0.484 149 170 187 
-0.08173832 0.1562806 0.481 120 135 152 
-0.07546646 0.1559557 0.48 180 201 220 
-0.06936455 0.1559557 0.48 146 167 184 
-0.06339443 0.1562806 0.481 183 205 231 
-0.05763705 0.1572554 0.484 186 211 245 
-0.05159065 0.1575803 0.485 181 203 229 
-0.0456125 0.1582301 0.487 175 197 221 
-0.03958349 0.1588799 0.489 181 203 229 
-0.03350363 0.1595297 0.491 176 198 224 
-0.02737293 0.1601795 0.493 176 198 222 
-0.02123418 0.1611543 0.496 156 179 196 
-0.01495897 0.1614792 0.497 173 198 219 
-0.008727871 0.1631037 0.502 173 198 221 
-0.002364978 0.1644033 0.506 169 194 215 
0.004083537 0.1650531 0.508 146 169 188 
0.01052065 0.1647282 0.507 135 158 175 
0.01693234 0.1644033 0.506 153 181 196 
0.02341095 0.1647282 0.507 147 173 189 
0.0298561 0.1647282 0.507 121 143 157 
0.03615805 0.1640784 0.505 144 171 184 
0.04232484 0.1631037 0.502 118 142 156 
0.04841535 0.162129 0.499 141 162 179 
0.0547588 0.162129 0.499 129 125 128 
0.06097981 0.1618041 0.498 140 131 126 
0.06704022 0.1611543 0.496 135 124 117 
0.07319766 0.1608294 0.495 119 110 105 
0.07949027 0.1608294 0.495 116 109 103 
0.08578287 0.1608294 0.495 109 104 100 
0.09226148 0.1611543 0.496 136 127 130 
0.09956041 0.1627788 0.501 164 156 155 
0.1084665 0.1666777 0.513 173 168 166 
0.118126 0.1712264 0.527 157 142 141 
0.1276677 0.1751253 0.539 211 248 251 
0.1365163 0.1777246 0.5470001 224 255 255 
0.1450436 0.179674 0.553 219 255 255 
0.1542735 0.1822733 0.561 212 252 252 
0.1642822 0.1855223 0.571 210 252 253 
0.1736439 0.1877967 0.578 215 255 254 
0.1834967 0.190396 0.586 215 255 254 
0.1942046 0.193645 0.596 215 255 254 
0.2051667 0.1968941 0.606 215 255 253 
0.2160318 0.1998183 0.615 212 255 253 
0.2271258 0.2027424 0.624 212 255 253 
0.2380718 0.2053417 0.632 211 255 255 
0.2496107 0.2082659 0.641 198 236 250 
0.2609763 0.2108651 0.649 220 255 255 
-0.2387792 0.249117 0.763 1 7 5 
-0.2275785 0.2474846 0.758 5 19 21 
-0.1220011 0.1639014 0.502 71 89 98 
-0.1144679 0.1622689 0.497 92 112 125 
-0.1068442 0.1603099 0.491 125 150 171 
-0.09978291 0.1590039 0.487 148 174 190 
-0.09320764 0.1583509 0.485 136 157 176 
-0.08668322 0.1576979 0.483 150 171 188 
-0.08020966 0.157045 0.481 105 122 138 
-0.07378694 0.156392 0.479 184 204 228 
-0.06769774 0.156392 0.479 122 142 157 
-0.06186577 0.157045 0.481 184 208 238 
-0.05609886 0.1580244 0.484 183 206 239 
-0.05004929 0.1583509 0.485 179 200 229 
-0.04406478 0.1590039 0.487 172 194 218 
-0.03802941 0.1596569 0.489 182 204 230 
-0.0319432 0.1603099 0.491 176 198 222 
-0.02585848 0.1612894 0.494 176 198 222 
-0.01965785 0.1619424 0.496 158 181 200 
-0.01337946 0.1622689 0.497 176 201 222 
-0.007146682 0.1642279 0.503 176 201 226 
-0.0007568686 0.1652074 0.506 166 191 212 
0.005698002 0.1658604 0.508 143 166 183 
0.01213194 0.1655339 0.507 137 160 177 
0.01854045 0.1652074 0.506 158 186 201 
0.02502224 0.1655339 0.507 144 170 188 
0.03146739 0.1655339 0.507 122 145 162 
0.0376882 0.1645544 0.504 148 177 189 
0.04383275 0.1635749 0.501 120 144 158 
0.05000121 0.1629219 0.499 146 166 181 
0.05634467 0.1629219 0.499 134 133 137 
0.0625625 0.1625954 0.498 144 136 133 
0.06861655 0.1619424 0.496 134 123 116 
0.07492186 0.1619424 0.496 123 114 109 
0.08122718 0.1619424 0.496 115 111 104 
0.08753249 0.1619424 0.496 118 113 109 
0.094027 0.1622689 0.497 142 138 139 
0.1013545 0.1639014 0.502 166 161 159 
0.1109553 0.1687988 0.517 173 168 166 
0.1202555 0.1727168 0.529 132 121 125 
0.1298608 0.1766348 0.541 215 255 255 
0.1382547 0.1785938 0.5470001 214 252 248 
0.147332 0.1812057 0.555 216 255 254 
0.1563346 0.1834912 0.562 212 252 252 
0.1666787 0.1870827 0.573 210 252 253 
0.1757845 0.1890417 0.5790001 215 255 254 
0.1859917 0.1919801 0.588 215 255 254 
0.1967568 0.1952451 0.598 215 255 254 
0.2077761 0.1985101 0.608 214 255 253 
0.2183408 0.201122 0.6160001 212 255 253 
0.2298432 0.204387 0.626 207 252 252 
0.2404603 0.2066725 0.633 212 255 255 
0.2520404 0.2096109 0.642 199 242 252 
-0.2479887 0.252298 0.7690001 0 3 1 
-0.2357348 0.2496733 0.761 12 20 17 
-0.1254412 0.1650272 0.503 61 79 86 
-0.1178636 0.1633868 0.498 101 128 139 
-0.110637 0.1620744 0.494 109 129 144 
-0.1030896 0.1601059 0.488 150 178 195 
-0.09629038 0.1591216 0.485 132 155 174 
-0.08975325 0.1584655 0.483 146 167 184 
-0.08326697 0.1578093 0.481 145 167 181 
-0.07683155 0.1571531 0.479 141 162 181 
-0.07074235 0.1571531 0.479 173 192 212 
-0.06465314 0.1571531 0.479 155 176 195 
-0.05905298 0.1584655 0.483 190 215 251 
-0.05302248 0.1587936 0.484 182 203 234 
-0.04706339 0.1594497 0.486 181 203 229 
-0.04105345 0.1601059 0.488 177 199 223 
-0.03499266 0.1607621 0.49 179 201 227 
-0.02888102 0.1614182 0.492 179 201 227 
-0.02276452 0.1624025 0.495 163 186 205 
-0.0165052 0.1627306 0.496 165 191 209 
-0.01026158 0.1637148 0.499 175 200 225 
-0.003965235 0.1656833 0.505 175 200 225 
0.002464211 0.1663395 0.507 156 182 198 
0.008909361 0.1663395 0.507 135 161 179 
0.01532423 0.1660115 0.506 145 171 189 
0.02175666 0.1660115 0.506 161 189 204 
0.02824481 0.1663395 0.507 137 163 181 
0.03455311 0.1656833 0.505 141 164 181 
0.04081057 0.1650272 0.503 120 146 162 
0.04692333 0.1640429 0.5 130 152 166 
0.05317294 0.1637148 0.499 164 188 202 
0.05951639 0.1637148 0.499 147 143 144 
0.06559588 0.1630587 0.497 143 136 130 
0.0717692 0.1627306 0.496 130 121 114 
0.07823192 0.1630587 0.497 122 115 109 
0.08454996 0.1630587 0.497 119 114 110 
0.09086798 0.1630587 0.497 129 121 120 
0.09777264 0.1640429 0.5 157 152 150 
0.1055866 0.1663395 0.507 170 167 164 
0.1160092 0.1722451 0.525 179 171 170 
0.1247863 0.1751979 0.534 213 247 253 
0.1340387 0.1784787 0.544 223 255 255 
0.1425088 0.1804472 0.55 219 255 253 
0.1516751 0.1830719 0.558 210 250 250 
0.1616139 0.1863528 0.568 210 250 252 
0.1709152 0.1886494 0.575 214 255 255 
0.1803945 0.190946 0.582 215 255 254 
0.1910198 0.1942268 0.592 215 255 254 
0.2018993 0.1975077 0.6020001 214 255 253 
0.212685 0.2004604 0.611 209 255 250 
0.2236994 0.2034132 0.62 212 255 253 
0.2345692 0.2060379 0.628 204 245 253 
0.2456424 0.2086626 0.636 203 242 251 
0.2577169 0.2119435 0.646 209 254 254 
-0.2449061 0.2528606 0.767 0 3 1 
-0.2330097 0.2505529 0.7600001 9 24 23 
-0.1254412 0.1658265 0.503 68 91 98 
-0.1176269 0.1638484 0.497 103 127 139 
-0.110413 0.1625297 0.493 108 128 141 
-0.1028784 0.1605517 0.487 151 179 196 
-0.09629038 0.1598923 0.485 133 156 175 
-0.08975325 0.159233 0.483 145 166 185 
-0.08326697 0.1585736 0.481 148 170 184 
-0.07683155 0.1579143 0.479 133 154 173 
-0.07059465 0.1575846 0.478 176 197 216 
-0.06465314 0.1579143 0.479 150 170 192 
-0.05905298 0.159233 0.483 190 218 253 
-0.05302248 0.1595626 0.484 181 205 235 
-0.04696655 0.1598923 0.485 181 202 231 
-0.04105345 0.1608814 0.488 177 199 223 
-0.03492124 0.161211 0.489 181 202 231 
-0.02882232 0.1618704 0.491 181 202 231 
-0.02271853 0.1628594 0.494 167 190 207 
-0.0165052 0.1635187 0.496 165 191 209 
-0.01026158 0.1645078 0.499 176 201 226 
-0.003957383 0.1661561 0.504 178 204 231 
0.002464211 0.1671452 0.507 157 185 200 
0.008909361 0.1671452 0.507 138 164 180 
0.01532423 0.1668155 0.506 140 165 186 
0.02171366 0.1664858 0.505 164 192 207 
0.0281891 0.1668155 0.506 138 166 183 
0.03455311 0.1664858 0.505 140 163 180 
0.04081057 0.1658265 0.503 135 161 177 
0.04692333 0.1648374 0.5 129 151 165 
0.05317294 0.1645078 0.499 147 173 189 
0.05951639 0.1645078 0.499 149 151 157 
0.06559588 0.1638484 0.497 149 139 137 
0.0717692 0.1635187 0.496 135 126 119 
0.07838934 0.1641781 0.498 124 117 111 
0.08472008 0.1641781 0.498 123 118 114 
0.09105082 0.1641781 0.498 133 123 123 
0.0979682 0.1651671 0.501 159 151 150 
0.1055866 0.1671452 0.507 171 168 165 
0.1157883 0.1727497 0.524 179 171 170 
0.1247863 0.1760464 0.534 213 247 253 
0.1337923 0.1790135 0.543 226 255 255 
0.1422497 0.1809915 0.549 219 255 253 
0.1514033 0.1836289 0.557 209 251 250 
0.1616139 0.1872553 0.568 209 251 252 
0.1709152 0.1895631 0.575 214 255 255 
0.1800846 0.1915411 0.581 215 255 254 
0.1906971 0.1948379 0.591 216 255 255 
0.2018993 0.1984643 0.6020001 215 255 254 
0.2123369 0.2011017 0.61 209 255 250 
0.2233386 0.2040688 0.619 212 255 253 
0.2341957 0.2067062 0.627 203 244 252 
0.2452562 0.2093436 0.6350001 203 242 251 
0.257318 0.2126403 0.645 209 254 254 
-0.2445868 0.2537481 0.766 0 3 1 
-0.2330097 0.2517606 0.7600001 9 24 23 
-0.1251919 0.1662945 0.502 74 97 104 
-0.1176269 0.1646382 0.497 108 132 144 
-0.110413 0.1633131 0.493 106 128 140 
-0.1028784 0.1613255 0.487 153 181 198 
-0.09629038 0.160663 0.485 134 157 176 
-0.08975325 0.1600005 0.483 144 167 186 
-0.08326697 0.159338 0.481 148 171 188 
-0.07683155 0.1586754 0.479 119 140 159 
-0.07059465 0.1583441 0.478 177 198 217 
-0.06451816 0.1583441 0.478 139 159 181 
-0.05893072 0.1596692 0.482 191 219 254 
-0.05302248 0.1603317 0.484 181 204 237 
-0.04696655 0.160663 0.485 179 203 231 
-0.04096932 0.1613255 0.487 177 199 223 
-0.03492124 0.161988 0.489 182 203 232 
-0.02882232 0.1626506 0.491 182 203 232 
-0.02271853 0.1636444 0.494 170 193 210 
-0.01647192 0.1639756 0.495 165 191 209 
-0.01024101 0.1649694 0.498 179 203 231 
-0.003957383 0.166957 0.504 179 205 232 
0.002459351 0.1676195 0.506 157 185 202 
0.008891788 0.1676195 0.506 140 166 182 
0.01529394 0.1672883 0.505 138 164 182 
0.02171366 0.1672883 0.505 162 190 205 
0.0281891 0.1676195 0.506 145 173 188 
0.03455311 0.1672883 0.505 137 160 177 
0.04081057 0.1666258 0.503 148 174 190 
0.04692333 0.1656319 0.5 131 153 167 
0.05317294 0.1653007 0.499 140 166 184 
0.05951639 0.1653007 0.499 184 197 206 
0.06559588 0.1646382 0.497 153 145 144 
0.0719139 0.1646382 0.497 140 131 124 
0.07838934 0.1649694 0.498 127 120 114 
0.08489019 0.1653007 0.499 129 122 116 
0.09141648 0.1656319 0.5 137 127 127 
0.0979682 0.1659632 0.501 159 151 150 
0.1055866 0.1679508 0.507 171 168 165 
0.1155673 0.173251 0.523 177 168 171 
0.1245527 0.1765637 0.5330001 215 249 255 
0.1332995 0.1792138 0.541 223 255 255 
0.1419906 0.1815326 0.548 219 255 253 
0.1511315 0.1841827 0.5560001 209 251 250 
0.1613294 0.1878266 0.567 208 249 253 
0.170618 0.1901455 0.574 214 255 255 
0.1797746 0.1921331 0.58 214 255 253 
0.1906971 0.195777 0.591 215 255 254 
0.2015639 0.1990896 0.601 215 255 254 
0.2123369 0.202071 0.61 209 255 250 
0.2229778 0.2047211 0.618 212 255 253 
0.2338222 0.2073712 0.626 201 245 252 
0.2448699 0.2100213 0.634 203 244 250 
0.257318 0.2136652 0.645 209 254 254 
-0.2473437 0.2552982 0.767 0 3 1 
-0.2357348 0.2533011 0.761 10 18 17 
-0.1270398 0.1674251 0.503 73 95 105 
-0.1192064 0.1654279 0.497 105 129 141 
-0.1119798 0.1640965 0.493 105 127 139 
-0.1046405 0.1624323 0.488 143 171 188 
-0.09783175 0.1614337 0.485 148 176 191 
-0.09128827 0.160768 0.483 141 164 183 
-0.08479563 0.1601023 0.481 153 176 193 
-0.07835384 0.1594366 0.479 104 123 141 
-0.07211377 0.1591037 0.478 182 204 228 
-0.06603728 0.1591037 0.478 121 136 153 
-0.06021167 0.1597694 0.48 187 212 248 
-0.05444794 0.160768 0.483 183 211 244 
-0.0484079 0.1611008 0.484 181 205 235 
-0.04242975 0.1617665 0.486 174 196 220 
-0.03640074 0.1624323 0.488 185 206 237 
-0.03032088 0.1630979 0.49 177 201 229 
-0.02423934 0.1640965 0.493 175 199 227 
-0.01804507 0.1647622 0.495 169 192 209 
-0.01179995 0.1654279 0.497 181 205 233 
-0.005537077 0.1670922 0.502 181 205 235 
0.0008495586 0.1680907 0.505 170 195 218 
0.007283679 0.1684236 0.506 144 170 186 
0.01368901 0.1680907 0.505 136 159 176 
0.02006891 0.1677579 0.504 153 181 196 
0.02652846 0.1680907 0.505 162 188 206 
0.03294818 0.1680907 0.505 123 149 167 
0.039212 0.1674251 0.503 145 171 187 
0.04542496 0.1667593 0.501 127 148 165 
0.05158707 0.1660936 0.499 132 155 172 
0.05793053 0.1660936 0.499 174 196 208 
0.06414517 0.1657608 0.498 156 159 162 
0.0703344 0.1654279 0.497 150 143 137 
0.07696088 0.1660936 0.499 136 127 122 
0.08347128 0.1664265 0.5 133 124 119 
0.0900071 0.1667593 0.501 137 129 126 
0.09637597 0.1667593 0.501 151 146 144 
0.1033601 0.1677579 0.504 170 165 163 
0.1128162 0.1724178 0.518 182 177 175 
0.1221672 0.1764121 0.53 209 241 252 
0.1310937 0.1794078 0.539 220 255 254 
0.1397371 0.1817377 0.546 219 255 253 
0.1488272 0.1844005 0.554 207 252 250 
0.1581207 0.1870634 0.562 207 248 252 
0.1684997 0.1907247 0.573 215 255 255 
0.1773178 0.192389 0.578 216 255 255 
0.1878604 0.1957175 0.588 214 255 253 
0.1986573 0.1990461 0.598 214 255 253 
0.2093635 0.2020418 0.6070001 212 255 253 
0.2199409 0.2047046 0.615 212 255 253 
0.2307217 0.2073674 0.623 200 246 250 
0.2420889 0.2103631 0.632 212 255 255 
0.253685 0.2133588 0.641 207 251 255 
0.2683692 0.2186844 0.657 161 193 213 
-0.2387792 0.2551793 0.763 0 5 3 
-0.1288941 0.1685588 0.504 71 92 100 
-0.1210289 0.1665521 0.498 86 106 119 
-0.1135466 0.1648799 0.493 108 132 144 
-0.106409 0.1635421 0.489 106 128 150 
-0.09937312 0.1622044 0.485 152 180 195 
-0.09282327 0.1615355 0.483 136 159 178 
-0.08632429 0.1608666 0.481 150 173 190 
-0.07987615 0.1601977 0.479 118 138 153 
-0.07347886 0.1595288 0.477 172 194 218 
-0.06741507 0.1595288 0.477 151 171 186 
-0.06147991 0.1598633 0.478 182 206 234 
-0.05586705 0.161201 0.482 188 216 251 
-0.0499461 0.1618699 0.484 180 205 237 
-0.04388381 0.1622044 0.485 174 196 220 
-0.03787387 0.1628733 0.487 184 205 234 
-0.03181308 0.1635421 0.489 179 203 231 
-0.02575379 0.1645455 0.492 179 203 231 
-0.01957859 0.1652143 0.494 160 183 200 
-0.01335254 0.1658832 0.496 176 198 222 
-0.007104057 0.167221 0.5 183 207 237 
-0.0007538769 0.1685588 0.504 179 205 234 
0.00567557 0.1692277 0.506 157 180 199 
0.01208408 0.1688932 0.505 136 159 176 
0.01846716 0.1685588 0.504 147 173 191 
0.02487417 0.1685588 0.504 170 195 216 
0.03134325 0.1688932 0.505 144 172 187 
0.0376882 0.1685588 0.504 149 175 193 
0.04383275 0.1675555 0.501 156 183 196 
0.05010141 0.167221 0.5 132 155 172 
0.05634467 0.1668866 0.499 149 173 187 
0.0625625 0.1665521 0.498 184 204 215 
0.06875489 0.1662177 0.497 155 154 154 
0.07537501 0.1668866 0.499 148 141 135 
0.08188223 0.167221 0.5 139 130 125 
0.08841488 0.1675555 0.501 138 130 129 
0.09478376 0.1675555 0.501 147 142 140 
0.1013545 0.1678899 0.502 166 161 159 
0.1100969 0.1715688 0.513 178 173 171 
0.1195735 0.1759165 0.526 207 238 254 
0.1286606 0.1792609 0.536 216 255 254 
0.1372437 0.181602 0.543 220 255 254 
0.1462702 0.1842775 0.551 210 252 251 
0.1555001 0.1869531 0.559 204 245 251 
0.165806 0.190632 0.5700001 214 255 255 
0.1748737 0.1926386 0.576 214 255 252 
0.1847265 0.1953141 0.5840001 214 255 253 
0.1957697 0.198993 0.595 214 255 253 
0.2064092 0.202003 0.604 215 255 254 
0.216923 0.2046785 0.612 213 255 254 
0.2280074 0.2076885 0.6210001 208 255 252 
0.2389408 0.210364 0.629 209 254 252 
0.2500775 0.2130396 0.637 197 234 253 
0.2642547 0.2180562 0.652 209 254 252 
-0.2415202 0.2567278 0.7640001 0 4 2 
-0.1304959 0.1693597 0.504 11 27 35 
-0.1228578 0.1676795 0.499 82 99 111 
-0.1153469 0.1659993 0.494 98 120 132 
-0.1079631 0.1643192 0.489 103 125 139 
-0.1009145 0.1629751 0.485 157 188 204 
-0.0943583 0.162303 0.483 139 167 182 
-0.08785295 0.1616309 0.481 149 172 191 
-0.08139845 0.1609589 0.479 146 169 186 
-0.07515202 0.1606229 0.478 129 148 168 
-0.06893102 0.1602868 0.477 170 191 208 
-0.06286724 0.1602868 0.477 163 184 203 
-0.0572798 0.1616309 0.481 191 219 254 
-0.05137791 0.162303 0.483 181 206 240 
-0.04542518 0.1629751 0.485 177 201 231 
-0.03934065 0.1633111 0.486 179 201 225 
-0.03329893 0.1639832 0.488 182 205 238 
-0.02726188 0.1649913 0.491 179 203 231 
-0.02114856 0.1659993 0.494 164 187 206 
-0.01489877 0.1663354 0.495 168 191 208 
-0.008658326 0.1673435 0.498 183 206 239 
-0.002350956 0.1690236 0.503 186 209 244 
0.004059421 0.1696957 0.505 167 189 211 
0.01047915 0.1696957 0.505 142 168 184 
0.01686541 0.1693597 0.504 140 163 180 
0.02327242 0.1693597 0.504 169 192 211 
0.02967943 0.1693597 0.504 153 181 196 
0.03608645 0.1693597 0.504 129 154 175 
0.04232484 0.1686876 0.502 147 173 189 
0.04851237 0.1680155 0.5 131 152 169 
0.0547588 0.1676795 0.499 141 164 181 
0.06097981 0.1673435 0.498 173 194 211 
0.06731054 0.1673435 0.498 179 193 199 
0.07364129 0.1673435 0.498 156 156 152 
0.08029319 0.1680155 0.5 146 138 135 
0.08682267 0.1683516 0.501 144 136 133 
0.09337755 0.1686876 0.502 147 142 138 
0.09995785 0.1690236 0.503 165 157 154 
0.1078322 0.1713759 0.5100001 178 173 171 
0.1172294 0.1757442 0.523 201 231 250 
0.1262466 0.1791046 0.5330001 208 247 252 
0.1347692 0.1814568 0.54 219 255 253 
0.1437322 0.184145 0.548 215 255 251 
0.1528985 0.1868333 0.5560001 203 244 248 
0.1634191 0.1908656 0.568 215 255 255 
0.1721418 0.1925458 0.573 216 255 254 
0.181931 0.195234 0.581 213 255 252 
0.1932271 0.1992664 0.5930001 214 255 253 
0.2038125 0.2022907 0.6020001 213 255 254 
0.2139242 0.2046429 0.609 211 255 252 
0.2249419 0.2076672 0.618 212 255 253 
0.2358117 0.2103554 0.626 206 250 255 
0.2472743 0.2133797 0.6350001 194 231 250 
0.260172 0.2174121 0.647 212 255 255 
-0.2439483 0.2579418 0.7640001 0 3 1 
-0.1323597 0.1704981 0.505 12 24 26 
-0.1246931 0.16881 0.5 76 96 107 
-0.1169169 0.1667843 0.494 123 145 159 
-0.1097411 0.1654338 0.49 108 132 146 
-0.1024559 0.1637457 0.485 157 184 204 
-0.0958933 0.1630705 0.483 147 175 190 
-0.08938161 0.1623953 0.481 142 165 182 
-0.08309386 0.1620576 0.48 153 179 195 
-0.07667115 0.1613824 0.478 110 124 144 
-0.07044697 0.1610448 0.477 179 201 225 
-0.06424821 0.1607072 0.476 123 137 157 
-0.05856393 0.16172 0.479 188 216 251 
-0.05280337 0.1627329 0.482 182 207 241 
-0.04686971 0.1634081 0.484 181 206 238 
-0.04080107 0.1637457 0.485 174 196 220 
-0.03477842 0.164421 0.487 186 209 242 
-0.02876362 0.1654338 0.49 181 205 233 
-0.02267255 0.1664467 0.493 172 197 222 
-0.01643864 0.1667843 0.494 167 190 207 
-0.01022045 0.1677972 0.497 184 207 240 
-0.003941679 0.1694853 0.502 183 206 241 
0.00245449 0.1704981 0.505 176 201 226 
0.008874215 0.1704981 0.505 149 172 189 
0.01526366 0.1701605 0.504 137 160 177 
0.02167067 0.1701605 0.504 153 176 195 
0.02807768 0.1701605 0.504 171 198 218 
0.0344847 0.1701605 0.504 142 168 184 
0.04081057 0.1698229 0.503 153 179 195 
0.04692333 0.16881 0.5 141 162 179 
0.05317294 0.1684724 0.499 134 157 174 
0.05939712 0.1681348 0.498 153 179 195 
0.06572786 0.1681348 0.498 180 200 213 
0.0720586 0.1681348 0.498 170 182 186 
0.07854674 0.1684724 0.499 156 147 150 
0.08523044 0.1691477 0.501 147 142 138 
0.09178215 0.1694853 0.502 148 143 139 
0.09835928 0.1698229 0.503 164 156 153 
0.1055866 0.1711734 0.507 175 171 172 
0.1144624 0.1748872 0.518 203 225 249 
0.1240853 0.1792763 0.531 209 245 255 
0.1325603 0.1816396 0.538 218 255 252 
0.1414724 0.1843406 0.546 217 255 253 
0.1505879 0.1870415 0.554 205 249 252 
0.1607603 0.1907553 0.565 215 255 255 
0.1700235 0.1931187 0.572 217 255 255 
0.1791547 0.1951444 0.578 217 255 255 
0.1900518 0.1988582 0.589 215 255 254 
0.2008932 0.2022344 0.599 212 255 253 
0.2109445 0.2045978 0.606 212 255 253 
0.2218954 0.2076364 0.615 212 255 253 
0.2327016 0.2103373 0.623 203 244 250 
0.2444837 0.2137135 0.633 209 250 255 
0.2561211 0.2167521 0.642 210 251 255 
0.2704572 0.2218164 0.657 104 126 148 
-0.2384662 0.2584774 0.762 0 6 4 
-0.1265347 0.1699438 0.501 83 103 114 
-0.1187267 0.1679085 0.495 126 149 168 
-0.1115255 0.1665517 0.491 144 173 185 
-0.1042117 0.1648556 0.486 140 162 184 
-0.09763003 0.1641772 0.484 155 183 200 
-0.09091026 0.1631596 0.481 143 166 183 
-0.08461934 0.1628204 0.48 152 180 195 
-0.07819027 0.162142 0.478 119 136 152 
-0.07181204 0.1614635 0.476 182 204 228 
-0.06576097 0.1614635 0.476 139 154 171 
-0.05996079 0.162142 0.478 189 214 248 
-0.05422248 0.1631596 0.481 187 215 248 
-0.04830788 0.163838 0.483 182 207 239 
-0.04234244 0.1645164 0.485 174 196 218 
-0.03625155 0.1648556 0.486 186 207 238 
-0.030259 0.1658733 0.489 179 203 233 
-0.02419017 0.1668909 0.492 177 201 231 
-0.01800862 0.1675693 0.494 170 193 210 
-0.01175247 0.1679085 0.495 180 204 232 
-0.005503986 0.1692653 0.499 186 209 244 
0.0008478763 0.1709614 0.504 181 206 238 
0.007269284 0.1713006 0.505 157 180 199 
0.01368901 0.1713006 0.505 137 160 177 
0.02006891 0.1709614 0.504 140 163 180 
0.02647593 0.1709614 0.504 174 199 222 
0.03288294 0.1709614 0.504 153 179 195 
0.039212 0.1706222 0.503 147 170 187 
0.04542496 0.1699438 0.501 153 180 193 
0.05169046 0.1696046 0.5 133 156 173 
0.05781444 0.1689261 0.498 146 172 188 
0.06414517 0.1689261 0.498 171 195 209 
0.07061743 0.1692653 0.499 190 212 224 
0.07696088 0.1692653 0.499 164 171 177 
0.08363823 0.1699438 0.501 152 151 151 
0.09018676 0.170283 0.502 153 150 147 
0.09676071 0.1706222 0.503 165 157 156 
0.1035652 0.1713006 0.505 175 174 174 
0.1121628 0.1746927 0.515 204 226 248 
0.1214757 0.1787632 0.527 209 242 255 
0.1301208 0.1814769 0.535 222 255 254 
0.1392253 0.1845298 0.544 215 255 254 
0.1480213 0.1869042 0.551 203 250 249 
0.157558 0.1899571 0.56 215 255 254 
0.1676175 0.1933492 0.5700001 217 255 255 
0.1763974 0.1950452 0.575 215 255 254 
0.1872214 0.1987765 0.586 214 255 253 
0.1979929 0.2021686 0.596 211 255 253 
0.2083287 0.2048823 0.604 212 255 253 
0.2192256 0.2079352 0.613 212 255 253 
0.229981 0.2106489 0.6210001 203 249 251 
0.2413228 0.2137018 0.6300001 213 255 255 
0.2524977 0.2164154 0.638 201 239 253 
0.2651014 0.2201467 0.649 211 255 255 
-0.2408879 0.2596882 0.762 0 3 1 
-0.1283827 0.1710807 0.502 91 113 123 
-0.1202999 0.1686951 0.495 116 142 160 
-0.113086 0.1673319 0.491 88 116 133 
-0.1059738 0.1659687 0.487 109 130 149 
-0.09916823 0.1649463 0.484 158 186 203 
-0.0926311 0.1642647 0.482 147 170 187 
-0.08614482 0.1635831 0.48 152 178 194 
-0.07970939 0.1629015 0.478 141 164 181 
-0.07332481 0.1622199 0.476 150 172 194 
-0.06727374 0.1622199 0.476 168 185 201 
-0.0613513 0.1625607 0.477 177 199 223 
-0.05563523 0.1635831 0.48 193 221 254 
-0.04973971 0.1642647 0.482 183 206 239 
-0.04379333 0.1649463 0.484 177 202 227 
-0.0377961 0.1656279 0.486 178 200 224 
-0.03174803 0.1663095 0.488 181 204 237 
-0.02570144 0.1673319 0.491 180 206 235 
-0.01953896 0.1680135 0.493 162 185 204 
-0.0132987 0.1683543 0.494 168 191 210 
-0.007075641 0.1697175 0.498 188 211 248 
-0.0007523812 0.1714215 0.503 187 212 248 
0.005664353 0.1721031 0.505 167 190 209 
0.01208408 0.1721031 0.505 145 171 187 
0.01846716 0.1717623 0.504 140 163 180 
0.02482482 0.1714215 0.503 166 192 210 
0.03128119 0.1717623 0.504 171 198 220 
0.0376882 0.1717623 0.504 133 159 177 
0.04383275 0.1707399 0.501 152 181 193 
0.05010141 0.1703991 0.5 140 166 182 
0.05634467 0.1700583 0.499 135 158 175 
0.0625625 0.1697175 0.498 165 188 205 
0.06889323 0.1697175 0.498 178 201 218 
0.07537501 0.1700583 0.499 195 217 231 
0.08188223 0.1703991 0.5 157 167 174 
0.08841488 0.1707399 0.501 160 160 164 
0.09516213 0.1714215 0.503 162 161 163 
0.1017583 0.1717623 0.504 175 180 185 
0.1098823 0.1744887 0.512 205 227 249 
0.1191189 0.1785783 0.524 205 238 253 
0.1279405 0.1816454 0.5330001 224 255 255 
0.1369909 0.1847126 0.5420001 209 251 250 
0.1454738 0.1867574 0.548 206 251 249 
0.1552219 0.1901654 0.558 216 255 255 
0.1649334 0.1932326 0.567 217 255 255 
0.1736593 0.1949366 0.572 214 255 253 
0.1837775 0.1980038 0.581 214 255 253 
0.1951117 0.2020933 0.5930001 210 255 252 
0.205384 0.2048197 0.601 211 255 252 
0.2162141 0.2078869 0.61 213 255 254 
0.2269059 0.2106133 0.618 208 255 252 
0.238181 0.2136805 0.627 208 253 253 
0.2492924 0.2164069 0.6350001 194 227 252 
0.2614177 0.2198148 0.645 210 255 254 
-0.2433096 0.2608991 0.762 0 2 1 
-0.130237 0.1722208 0.503 89 111 123 
-0.1221192 0.1698241 0.496 116 142 160 
-0.1146464 0.1681121 0.491 82 102 115 
-0.1075215 0.1667426 0.487 120 144 158 
-0.1007064 0.1657154 0.484 157 184 204 
-0.09416294 0.1650306 0.482 148 174 190 
-0.0876703 0.1643459 0.48 148 171 188 
-0.08122852 0.1636611 0.478 152 178 194 
-0.07483757 0.1629763 0.476 113 129 148 
-0.068642 0.1626339 0.475 178 199 218 
-0.06273544 0.1629763 0.476 144 163 181 
-0.05704163 0.1640035 0.479 193 221 254 
-0.05116517 0.1646883 0.481 183 208 242 
-0.04533152 0.1657154 0.484 182 206 236 
-0.0392597 0.1660578 0.485 176 198 220 
-0.03323069 0.1667426 0.487 186 211 243 
-0.02726188 0.1681121 0.491 181 205 235 
-0.02110575 0.1687969 0.493 169 194 215 
-0.01486867 0.1691393 0.494 162 185 202 
-0.008623553 0.1698241 0.496 187 210 245 
-0.002341609 0.171536 0.501 187 214 252 
0.004051383 0.1725632 0.504 177 202 227 
0.01047915 0.1729055 0.505 149 175 191 
0.01686541 0.1725632 0.504 140 163 180 
0.02322625 0.1722208 0.503 147 173 191 
0.02962055 0.1722208 0.503 180 206 235 
0.03608645 0.1725632 0.504 153 181 196 
0.04232484 0.1718784 0.502 147 175 190 
0.04851237 0.1711936 0.5 158 187 199 
0.0547588 0.1708512 0.499 134 157 174 
0.06097981 0.1705088 0.498 151 177 193 
0.06731054 0.1705088 0.498 174 195 214 
0.07378916 0.1708512 0.499 189 211 233 
0.08029319 0.1711936 0.5 189 209 222 
0.08682267 0.171536 0.501 178 191 200 
0.09356355 0.1722208 0.503 168 180 186 
0.1001566 0.1725632 0.504 196 212 220 
0.1078322 0.1746175 0.5100001 200 222 246 
