ply
format ascii 1.0
element vertex 1216
property float32 x
property float32 y
property float32 z
property uchar red
property uchar green
property uchar blue
end_header
0.05953287 0.08309188 0.386 158 132 130 
0.06214694 0.08330715 0.387 166 140 136 
0.06477371 0.08352241 0.388 168 142 138 
0.0679331 0.08438347 0.392 169 143 139 
0.07078402 0.084814 0.394 171 145 141 
0.07384638 0.08545978 0.397 171 148 143 
0.07675452 0.08589032 0.399 161 139 131 
0.07968807 0.08632084 0.401 159 139 131 
0.08264706 0.08675137 0.403 152 133 127 
0.08563146 0.0871819 0.405 168 148 140 
0.08907687 0.08804295 0.409 171 152 146 
0.09234899 0.08868875 0.412 150 136 132 
0.09542874 0.08911928 0.414 161 151 149 
0.1406951 0.1278668 0.594 194 186 183 
0.1456867 0.1289431 0.599 241 255 255 
0.1509915 0.1302347 0.605 237 255 254 
0.1561166 0.131311 0.61 231 255 251 
0.1607807 0.1319568 0.613 229 255 253 
0.1657516 0.1328178 0.617 227 255 251 
0.1702234 0.1332484 0.619 224 255 251 
0.1750019 0.1338942 0.622 223 255 250 
0.1792431 0.1341094 0.623 221 255 251 
0.1834971 0.1343247 0.624 214 252 250 
0.1874633 0.1343247 0.624 209 246 249 
0.1914296 0.1343247 0.624 208 247 252 
0.1953958 0.1343247 0.624 197 236 252 
0.1993621 0.1343247 0.624 209 242 255 
0.2036542 0.13454 0.625 185 205 220 
0.007292672 0.08999398 0.415 45 41 34 
0.009906552 0.08977713 0.414 46 39 33 
0.01244715 0.08912657 0.411 39 32 26 
0.01494961 0.08847602 0.408 36 29 21 
0.01745693 0.0880423 0.406 35 28 20 
0.01988947 0.08739175 0.403 35 28 20 
0.02228387 0.08674119 0.4 37 30 22 
0.02464014 0.08609063 0.397 39 32 24 
0.02688985 0.08522321 0.393 44 35 28 
0.02916349 0.08457266 0.39 53 42 35 
0.03148013 0.08413895 0.388 54 43 36 
0.03385882 0.0839221 0.387 58 44 40 
0.03622481 0.08370525 0.386 56 42 38 
0.03857809 0.0834884 0.385 56 42 38 
0.0408121 0.08305469 0.383 68 57 52 
0.04324651 0.08305469 0.383 79 64 63 
0.04556165 0.08283783 0.382 93 78 77 
0.0479897 0.08283783 0.382 119 99 100 
0.05054974 0.08305469 0.383 124 101 100 
0.05298415 0.08305469 0.383 136 110 108 
0.05556325 0.08327154 0.384 141 118 115 
0.05815507 0.0834884 0.385 152 126 124 
0.0607596 0.08370525 0.386 162 136 132 
0.06354062 0.08413895 0.388 168 142 138 
0.06634705 0.08457266 0.39 169 143 139 
0.06935538 0.08522321 0.393 168 145 140 
0.07240186 0.08587378 0.396 169 146 141 
0.07529727 0.08630749 0.398 167 146 141 
0.07821812 0.08674119 0.4 165 145 137 
0.08116438 0.08717489 0.402 151 130 125 
0.08413608 0.0876086 0.404 165 147 138 
0.08734781 0.08825916 0.407 171 153 144 
0.09059767 0.08890972 0.41 162 146 141 
0.09411301 0.08977713 0.414 162 152 152 
0.09697814 0.08999398 0.415 196 187 180 
0.1428229 0.1290275 0.595 159 153 159 
0.1478368 0.1301118 0.6 239 255 255 
0.153167 0.1314129 0.606 242 255 254 
0.1580552 0.1322803 0.61 229 255 251 
0.1627289 0.1329309 0.613 233 255 253 
0.1677125 0.1337983 0.617 225 255 250 
0.1721906 0.134232 0.619 226 255 251 
0.1769786 0.1348826 0.622 223 255 250 
0.1812231 0.1350994 0.623 222 255 252 
0.1854802 0.1353163 0.624 211 248 251 
0.1891429 0.1350994 0.623 208 247 252 
0.1931027 0.1350994 0.623 198 232 250 
0.1970626 0.1350994 0.623 201 238 255 
0.2013452 0.1353163 0.624 206 237 253 
0.2056405 0.1355331 0.625 201 228 241 
0.2099485 0.13575 0.626 92 87 95 
0.009882622 0.09021655 0.413 45 38 32 
0.01244715 0.08977967 0.411 38 31 25 
0.01498625 0.08934278 0.409 35 28 22 
0.01745693 0.08868746 0.406 35 28 22 
0.01988947 0.08803213 0.403 37 28 21 
0.02228387 0.0873768 0.4 38 29 22 
0.02464014 0.08672148 0.397 40 31 24 
0.02688985 0.08584771 0.393 44 35 28 
0.02923827 0.08541083 0.391 53 42 35 
0.03156126 0.08497395 0.389 54 43 36 
0.03385882 0.08453706 0.387 59 45 41 
0.03622481 0.08431862 0.386 58 44 40 
0.03857809 0.08410018 0.385 56 42 38 
0.04091866 0.08388173 0.384 73 59 55 
0.04324651 0.08366329 0.383 79 64 63 
0.04568092 0.08366329 0.383 99 84 83 
0.04811533 0.08366329 0.383 132 110 114 
0.05054974 0.08366329 0.383 131 110 109 
0.05298415 0.08366329 0.383 141 118 115 
0.05556325 0.08388173 0.384 146 123 120 
0.05815507 0.08410018 0.385 152 126 124 
0.06091702 0.08453706 0.387 161 135 133 
0.06354062 0.0847555 0.388 168 142 138 
0.06634705 0.08519239 0.39 170 144 140 
0.06935538 0.08584771 0.393 170 147 142 
0.07240186 0.08650304 0.396 166 145 142 
0.07529727 0.08693992 0.398 166 145 140 
0.07821812 0.0873768 0.4 165 145 137 
0.08116438 0.08781369 0.402 146 125 120 
0.08413608 0.08825058 0.404 166 148 139 
0.08734781 0.0889059 0.407 169 151 142 
0.09059767 0.08956123 0.41 157 143 139 
0.09411301 0.090435 0.414 189 181 178 
0.09674446 0.090435 0.414 199 188 181 
0.1425828 0.1297546 0.594 185 176 181 
0.1475904 0.1308468 0.599 239 255 255 
0.1529142 0.1321574 0.605 245 255 255 
0.157537 0.1328128 0.608 234 255 251 
0.1621979 0.1334681 0.611 235 255 254 
0.1671688 0.1343418 0.615 227 255 251 
0.1719124 0.1349972 0.618 229 255 253 
0.1766941 0.1356525 0.6210001 225 255 252 
0.1812231 0.1360894 0.623 222 255 252 
0.185183 0.1360894 0.623 212 249 252 
0.1891429 0.1360894 0.623 211 251 253 
0.1931027 0.1360894 0.623 200 235 250 
0.1970626 0.1360894 0.623 200 234 252 
0.2013452 0.1363078 0.624 202 236 254 
0.2056405 0.1365263 0.625 206 241 255 
0.2099485 0.1367447 0.626 195 215 226 
0.008590826 0.09109286 0.414 43 39 32 
0.01119517 0.09087283 0.413 38 34 27 
0.01371988 0.09021274 0.41 35 28 22 
0.01624626 0.08977267 0.408 33 26 20 
0.01870105 0.08911258 0.405 36 29 21 
0.02111771 0.08845249 0.402 38 29 22 
0.02349622 0.0877924 0.399 39 30 23 
0.02577135 0.08691227 0.395 43 34 27 
0.02806724 0.08625218 0.392 50 41 34 
0.03040294 0.08581211 0.39 55 41 35 
0.03271322 0.08537205 0.388 58 44 38 
0.03508874 0.08515202 0.387 61 47 41 
0.03745155 0.08493198 0.386 68 54 50 
0.03980165 0.08471196 0.385 68 54 50 
0.04213904 0.08449192 0.384 82 68 64 
0.04446371 0.0842719 0.383 100 85 84 
0.04689812 0.0842719 0.383 121 103 109 
0.04933253 0.0842719 0.383 140 120 123 
0.05176694 0.0842719 0.383 144 123 120 
0.05434287 0.08449192 0.384 146 125 122 
0.05693151 0.08471196 0.385 152 129 126 
0.05953287 0.08493198 0.386 154 131 128 
0.06214694 0.08515202 0.387 162 136 132 
0.0651076 0.08581211 0.39 169 143 139 
0.0679331 0.08625218 0.392 171 145 141 
0.07096368 0.08691227 0.395 169 148 143 
0.07384638 0.08735233 0.397 165 144 141 
0.07675452 0.0877924 0.399 164 145 139 
0.07988679 0.08845249 0.402 160 139 136 
0.08264706 0.08867252 0.403 154 133 132 
0.08563146 0.08911258 0.405 167 148 142 
0.08907687 0.0899927 0.409 165 151 143 
0.09234899 0.0906528 0.412 151 139 137 
0.09542874 0.09109286 0.414 192 184 181 
0.1402213 0.1302584 0.592 200 191 186 
0.1447138 0.1309185 0.595 221 231 236 
0.1499932 0.1322387 0.601 245 255 255 
0.1550929 0.1333388 0.606 244 255 254 
0.1594693 0.1337789 0.608 235 255 253 
0.1644084 0.134659 0.612 234 255 251 
0.1693984 0.1355391 0.6160001 231 255 251 
0.1741578 0.1361992 0.619 227 255 251 
0.1786677 0.1366393 0.6210001 223 255 252 
0.182909 0.1368593 0.622 212 250 248 
0.1871629 0.1370794 0.623 216 255 254 
0.1911228 0.1370794 0.623 204 243 248 
0.1950827 0.1370794 0.623 199 234 247 
0.1990426 0.1370794 0.623 200 235 250 
0.2033283 0.1372994 0.624 200 234 252 
0.2076267 0.1375194 0.625 205 240 253 
0.2119379 0.1377394 0.626 205 229 239 
0.2169516 0.1383995 0.629 80 78 87 
0.009882622 0.0915291 0.413 43 39 32 
0.01244715 0.09108587 0.411 37 30 24 
0.01498625 0.09064262 0.409 33 26 20 
0.01749992 0.09019938 0.407 35 28 22 
0.01993882 0.08953452 0.404 38 29 22 
0.02233959 0.08886966 0.401 39 30 23 
0.02464014 0.08798318 0.397 41 32 25 
0.02695827 0.08731832 0.394 45 36 29 
0.02923827 0.08665346 0.391 53 42 35 
0.03156126 0.08621022 0.389 57 43 37 
0.03394631 0.0859886 0.388 64 50 44 
0.03622481 0.08554536 0.386 69 55 49 
0.03857809 0.08532374 0.385 69 53 50 
0.04091866 0.08510212 0.384 88 74 70 
0.04324651 0.0848805 0.383 105 90 91 
0.04568092 0.0848805 0.383 118 103 104 
0.04811533 0.0848805 0.383 138 121 123 
0.05054974 0.0848805 0.383 151 132 130 
0.05312249 0.08510212 0.384 148 127 124 
0.05570795 0.08532374 0.385 154 131 128 
0.05830612 0.08554536 0.386 154 131 128 
0.06091702 0.08576699 0.387 160 137 134 
0.06370438 0.08621022 0.389 168 142 138 
0.06651717 0.08665346 0.391 171 145 141 
0.06935538 0.0870967 0.393 168 147 142 
0.07240186 0.08776157 0.396 167 146 141 
0.07529727 0.08820481 0.398 167 148 142 
0.07841367 0.08886966 0.401 171 152 146 
0.08136629 0.0893129 0.403 156 133 130 
0.08413608 0.08953452 0.404 152 133 129 
0.08734781 0.09019938 0.407 161 145 140 
0.09059767 0.09086425 0.41 153 144 139 
0.09411301 0.09175073 0.414 187 179 178 
0.1381062 0.1309775 0.591 196 189 183 
0.1421027 0.1311991 0.592 203 195 194 
0.1470976 0.1323072 0.597 239 255 253 
0.152156 0.1334153 0.6020001 246 255 253 
0.1570188 0.1343018 0.606 238 255 252 
0.1614016 0.134745 0.608 239 255 254 
0.1666252 0.1358531 0.613 234 255 251 
0.1713561 0.136518 0.6160001 231 255 253 
0.176125 0.1371828 0.619 225 255 252 
0.1806413 0.1376261 0.6210001 222 255 252 
0.1845885 0.1376261 0.6210001 218 255 252 
0.1888393 0.1378477 0.622 214 255 252 
0.1927928 0.1378477 0.622 203 242 251 
0.1967463 0.1378477 0.622 203 238 251 
0.2010225 0.1380693 0.623 202 237 252 
0.2053114 0.1382909 0.624 202 236 254 
0.2096131 0.1385126 0.625 202 240 252 
0.2142691 0.1389558 0.627 218 245 254 
0.2192987 0.1396207 0.6300001 86 87 102 
0.224012 0.1400639 0.632 80 63 63 
0.009882622 0.09218537 0.413 43 39 32 
0.01244715 0.09173895 0.411 37 30 24 
0.01498625 0.09129254 0.409 32 25 19 
0.01749992 0.09084611 0.407 33 26 20 
0.01993882 0.09017649 0.404 38 31 23 
0.02233959 0.08950686 0.401 39 30 23 
0.02464014 0.08861402 0.397 41 32 25 
0.02695827 0.0879444 0.394 44 35 28 
0.02931305 0.08749798 0.392 53 42 35 
0.0316424 0.08705156 0.39 58 44 38 
0.03394631 0.08660515 0.388 65 51 45 
0.03622481 0.08615872 0.386 79 63 60 
0.03857809 0.08593552 0.385 81 62 60 
0.04102521 0.08593552 0.385 100 85 84 
0.04335942 0.08571231 0.384 113 98 99 
0.04568092 0.0854891 0.383 121 106 107 
0.04811533 0.0854891 0.383 140 122 128 
0.05054974 0.0854891 0.383 154 132 134 
0.05312249 0.08571231 0.384 154 133 132 
0.05570795 0.08593552 0.385 156 133 132 
0.05830612 0.08615872 0.386 157 131 129 
0.06091702 0.08638193 0.387 162 136 134 
0.06370438 0.08682836 0.389 169 143 139 
0.06651717 0.08727477 0.391 169 146 141 
0.06953186 0.0879444 0.394 166 145 140 
0.07240186 0.08839082 0.396 167 146 141 
0.07529727 0.08883724 0.398 167 148 144 
0.07841367 0.08950686 0.401 172 153 147 
0.08136629 0.08995328 0.403 158 139 135 
0.08413608 0.09017649 0.404 158 139 135 
0.08734781 0.09084611 0.407 155 141 137 
0.09059767 0.09151575 0.41 151 143 140 
0.09388568 0.09218537 0.413 192 184 181 
0.09651078 0.09218537 0.413 196 189 183 
0.1418627 0.1319166 0.591 201 193 192 
0.1466048 0.1328094 0.595 239 255 253 
0.1519032 0.1341487 0.601 246 255 253 
0.1565006 0.1348183 0.604 238 255 252 
0.1611361 0.135488 0.6070001 240 255 254 
0.1660815 0.1363808 0.611 234 255 251 
0.1710779 0.1372736 0.615 233 255 251 
0.1758405 0.1379433 0.618 226 255 250 
0.1803504 0.1383897 0.62 223 255 252 
0.1845885 0.1386129 0.6210001 218 255 252 
0.1885357 0.1386129 0.6210001 216 255 252 
0.1924828 0.1386129 0.6210001 204 243 250 
0.19643 0.1386129 0.6210001 206 241 254 
0.2010225 0.1390593 0.623 198 232 250 
0.2053114 0.1392825 0.624 199 233 253 
0.2096131 0.1395057 0.625 203 241 255 
0.2139274 0.1397289 0.626 207 243 253 
0.2189506 0.1403985 0.629 195 217 229 
0.2233031 0.1406218 0.6300001 79 72 85 
-0.01211236 0.1324061 0.589 129 135 137 
0.01371988 0.09216726 0.41 33 26 20 
0.01624626 0.09171766 0.408 33 26 20 
0.01874723 0.09126806 0.406 37 30 22 
0.02111771 0.09036887 0.402 39 30 23 
0.02349622 0.08969448 0.399 40 31 24 
0.0258366 0.08902008 0.396 45 36 29 
0.02813884 0.08834568 0.393 52 41 34 
0.0304809 0.08789609 0.391 56 42 36 
0.03279753 0.0874465 0.389 63 49 43 
0.03508874 0.0869969 0.387 72 58 52 
0.03745155 0.0867721 0.386 85 69 66 
0.03980165 0.0865473 0.385 102 87 86 
0.04213904 0.0863225 0.384 99 82 82 
0.0445798 0.0863225 0.384 116 101 102 
0.04689812 0.0860977 0.383 144 127 129 
0.04933253 0.0860977 0.383 151 134 136 
0.0519021 0.0863225 0.384 158 136 138 
0.05448439 0.0865473 0.385 160 137 136 
0.05707939 0.0867721 0.386 155 132 131 
0.0596871 0.0869969 0.387 158 132 130 
0.06230752 0.0872217 0.388 164 136 133 
0.0651076 0.08767129 0.39 172 146 142 
0.0679331 0.08812089 0.392 169 146 141 
0.07096368 0.08879528 0.395 167 146 141 
0.07384638 0.08924488 0.397 165 144 139 
0.07675452 0.08969448 0.399 169 148 145 
0.07988679 0.09036887 0.402 166 147 141 
0.08285213 0.09081846 0.404 163 144 140 
0.08563146 0.09104326 0.405 161 142 138 
0.08885908 0.09171766 0.408 133 123 121 
0.09234899 0.09261686 0.412 189 184 180 
0.09519823 0.09284165 0.413 194 186 183 
0.1397476 0.1326309 0.59 200 193 187 
0.1439842 0.1330805 0.592 164 166 172 
0.1489949 0.1342045 0.597 247 255 254 
0.1540692 0.1353285 0.6020001 246 255 253 
0.1584201 0.1357781 0.604 237 255 252 
0.1630652 0.1364525 0.6070001 238 255 253 
0.1682984 0.1375765 0.612 233 255 251 
0.1733138 0.1384757 0.6160001 233 255 251 
0.1778046 0.1389253 0.618 226 255 250 
0.1820268 0.1391501 0.619 220 255 250 
0.1862616 0.1393749 0.62 222 255 252 
0.1902024 0.1393749 0.62 212 253 250 
0.1944564 0.1395997 0.6210001 203 242 251 
0.1984036 0.1395997 0.6210001 202 237 250 
0.2026766 0.1398245 0.622 197 231 251 
0.2069623 0.1400493 0.623 204 238 255 
0.2112608 0.1402741 0.624 201 239 253 
0.2162618 0.1409485 0.627 205 240 253 
0.2209496 0.1413981 0.629 212 239 250 
0.2249477 0.1413981 0.629 89 88 99 
-0.01588306 0.1335685 0.59 180 191 191 
-0.01211236 0.1333421 0.589 85 91 91 
0.01502289 0.09281877 0.41 30 26 19 
0.01749992 0.0921396 0.407 30 26 19 
0.01988947 0.09123406 0.403 38 31 23 
0.02233959 0.09078128 0.401 39 30 23 
0.02464014 0.08987573 0.397 44 35 28 
0.02695827 0.08919657 0.394 49 38 31 
0.02931305 0.08874379 0.392 52 41 34 
0.0316424 0.08829102 0.39 61 47 41 
0.03394631 0.08783824 0.388 72 58 50 
0.03631866 0.08761186 0.387 88 72 69 
0.03857809 0.08715908 0.385 98 79 77 
0.04102521 0.08715908 0.385 112 98 94 
0.04335942 0.08693269 0.384 122 102 105 
0.04580019 0.08693269 0.384 130 113 115 
0.04824096 0.08693269 0.384 151 134 136 
0.05068172 0.08693269 0.384 156 136 139 
0.05326083 0.08715908 0.385 158 136 138 
0.05570795 0.08715908 0.385 159 136 135 
0.05830612 0.08738547 0.386 159 133 131 
0.06091702 0.08761186 0.387 164 136 135 
0.06386814 0.08829102 0.39 171 143 140 
0.06668729 0.08874379 0.392 173 147 143 
0.06953186 0.08919657 0.394 162 141 138 
0.07240186 0.08964934 0.396 170 149 144 
0.07529727 0.09010212 0.398 164 143 140 
0.07841367 0.09078128 0.401 168 147 142 
0.08136629 0.09123406 0.403 157 138 134 
0.08434434 0.09168683 0.405 158 139 135 
0.0871332 0.09191322 0.406 152 143 138 
0.09059767 0.09281877 0.41 156 148 145 
0.09388568 0.09349792 0.413 191 186 182 
0.1376389 0.1333421 0.589 195 187 184 
0.1413826 0.1333421 0.589 202 194 191 
0.146112 0.1342476 0.5930001 243 255 255 
0.1513977 0.1356059 0.599 246 255 253 
0.1559824 0.1362851 0.6020001 244 255 252 
0.1603397 0.1367379 0.604 240 255 252 
0.1652661 0.1376434 0.608 236 255 251 
0.1705215 0.1387754 0.613 233 255 251 
0.1752715 0.1394545 0.6160001 233 255 253 
0.1797686 0.1399073 0.618 227 255 251 
0.183994 0.1401337 0.619 221 255 251 
0.1879285 0.1401337 0.619 222 255 252 
0.1921729 0.1403601 0.62 209 245 251 
0.1961137 0.1403601 0.62 202 240 252 
0.2003772 0.1405865 0.6210001 199 233 251 
0.2046534 0.1408129 0.622 198 232 252 
0.2089423 0.1410392 0.623 206 241 254 
0.2135856 0.141492 0.625 202 240 252 
0.2182545 0.1419448 0.627 201 239 251 
0.2225942 0.1421712 0.628 212 246 255 
0.2258643 0.1417184 0.626 101 109 124 
-0.01588306 0.134506 0.59 87 86 93 
-0.01213292 0.134506 0.59 68 74 72 
0.01624626 0.09301432 0.408 30 26 19 
0.01870105 0.0923304 0.405 35 31 22 
0.02111771 0.09164646 0.402 38 31 23 
0.02349622 0.09096254 0.399 40 31 24 
0.0258366 0.0902786 0.396 45 36 29 
0.02813884 0.08959467 0.393 50 39 32 
0.0304809 0.08913872 0.391 55 41 35 
0.03279753 0.08868277 0.389 64 50 44 
0.03508874 0.08822682 0.387 80 66 60 
0.03745155 0.08799884 0.386 93 77 74 
0.03980165 0.08777086 0.385 109 93 90 
0.04213904 0.08754288 0.384 117 97 98 
0.0445798 0.08754288 0.384 134 119 120 
0.04702057 0.08754288 0.384 145 128 130 
0.04946133 0.08754288 0.384 154 132 136 
0.05203727 0.08777086 0.385 160 138 142 
0.05448439 0.08777086 0.385 161 138 137 
0.05707939 0.08799884 0.386 159 136 135 
0.0596871 0.08822682 0.387 162 136 134 
0.06246811 0.08868277 0.389 168 142 140 
0.06527454 0.08913872 0.391 173 147 143 
0.0681064 0.08959467 0.393 169 146 141 
0.07096368 0.09005062 0.395 151 130 127 
0.07384638 0.09050658 0.397 166 147 141 
0.07675452 0.09096254 0.399 166 145 142 
0.07988679 0.09164646 0.402 160 141 135 
0.08285213 0.09210242 0.404 159 143 138 
0.08563146 0.0923304 0.405 155 139 134 
0.08885908 0.09301432 0.408 143 135 134 
0.09234899 0.09392623 0.412 189 184 180 
0.09519823 0.0941542 0.413 193 188 184 
0.1392739 0.13405 0.588 199 192 186 
0.1434978 0.134506 0.59 168 164 169 
0.1484957 0.1356459 0.595 247 255 254 
0.1533014 0.1365578 0.599 246 255 253 
0.1578956 0.1372417 0.6020001 244 255 252 
0.1625279 0.1379256 0.605 239 255 251 
0.1674734 0.1388375 0.609 234 255 251 
0.1727511 0.1399774 0.614 234 255 252 
0.1772292 0.1404334 0.6160001 229 255 251 
0.1814386 0.1406614 0.617 225 255 250 
0.1856608 0.1408893 0.618 222 255 252 
0.1898957 0.1411173 0.619 221 255 253 
0.1938301 0.1411173 0.619 204 240 250 
0.1980841 0.1413453 0.62 203 238 253 
0.2020249 0.1413453 0.62 196 230 250 
0.2062979 0.1415733 0.6210001 205 238 253 
0.2109222 0.1420292 0.623 203 242 251 
0.215572 0.1424852 0.625 202 240 252 
0.2202471 0.1429411 0.627 201 239 251 
0.2242324 0.1429411 0.627 212 248 255 
0.2271258 0.1422572 0.624 134 151 163 
-0.01969975 0.1359027 0.592 61 57 58 
-0.01588306 0.1354435 0.59 65 65 69 
-0.01213292 0.1354435 0.59 62 69 63 
-0.008396996 0.1356731 0.591 53 61 50 
0.01745693 0.09320351 0.406 30 26 19 
0.01993882 0.09274438 0.404 35 31 22 
0.02233959 0.09205569 0.401 39 30 23 
0.02464014 0.09113742 0.397 44 35 28 
0.0270267 0.09067829 0.395 50 39 32 
0.02931305 0.0899896 0.392 52 38 32 
0.0316424 0.08953047 0.39 59 45 39 
0.03394631 0.08907133 0.388 72 58 52 
0.03631866 0.08884177 0.387 89 73 70 
0.03857809 0.08838264 0.385 105 86 84 
0.04102521 0.08838264 0.385 116 100 97 
0.04335942 0.08815307 0.384 128 111 113 
0.04580019 0.08815307 0.384 137 120 122 
0.04824096 0.08815307 0.384 157 135 139 
0.05068172 0.08815307 0.384 158 136 140 
0.05326083 0.08838264 0.385 162 140 142 
0.05585264 0.08861221 0.386 162 140 142 
0.05845718 0.08884177 0.387 162 139 136 
0.06107442 0.08907133 0.388 165 139 137 
0.06386814 0.08953047 0.39 171 145 141 
0.06668729 0.0899896 0.392 174 148 144 
0.06953186 0.09044873 0.394 167 146 141 
0.07240186 0.09090786 0.396 165 149 146 
0.07529727 0.09136699 0.398 154 135 129 
0.07841367 0.09205569 0.401 167 151 146 
0.08136629 0.09251482 0.403 144 125 121 
0.08434434 0.09297395 0.405 158 142 137 
0.0871332 0.09320351 0.406 144 136 135 
0.09234899 0.09458091 0.412 189 184 180 
0.135306 0.1347548 0.587 192 187 183 
0.139037 0.1347548 0.587 199 191 188 
0.1432545 0.135214 0.589 175 171 176 
0.1482462 0.1363618 0.594 247 255 254 
0.1530455 0.1372801 0.598 246 255 253 
0.157371 0.1377392 0.6 246 255 253 
0.1622593 0.1386575 0.604 241 255 251 
0.1671984 0.1395757 0.608 236 255 251 
0.1724697 0.1407235 0.613 235 255 252 
0.1769414 0.1411827 0.615 231 255 251 
0.1811446 0.1414122 0.6160001 226 255 250 
0.1853604 0.1416418 0.617 223 255 252 
0.1895889 0.1418714 0.618 222 255 254 
0.193517 0.1418714 0.618 205 239 249 
0.1977646 0.1421009 0.619 205 238 253 
0.2020249 0.1423305 0.62 198 230 250 
0.2059657 0.1423305 0.62 205 237 255 
0.2102451 0.1425601 0.6210001 203 242 251 
0.215227 0.1432488 0.624 202 240 252 
0.2198959 0.1437079 0.626 202 240 252 
0.2238748 0.1437079 0.626 205 243 255 
0.2271258 0.1432488 0.624 211 245 255 
0.2307217 0.1430192 0.623 108 117 129 
-0.01778823 0.1366122 0.591 55 49 53 
-0.01400799 0.1363811 0.59 63 66 65 
-0.01025786 0.1363811 0.59 55 62 54 
-0.00652978 0.1368434 0.592 38 39 30 
0.01870105 0.09361751 0.405 34 30 21 
0.02111771 0.09292404 0.402 38 31 23 
0.02349622 0.09223059 0.399 39 30 23 
0.0258366 0.09153713 0.396 47 36 29 
0.02813884 0.09084366 0.393 49 38 31 
0.0304809 0.09038135 0.391 54 40 34 
0.03279753 0.08991905 0.389 64 50 44 
0.03508874 0.08945674 0.387 83 67 64 
0.03745155 0.08922558 0.386 96 77 75 
0.03980165 0.08899442 0.385 109 88 87 
0.04213904 0.08876327 0.384 123 104 102 
0.0445798 0.08876327 0.384 139 124 125 
0.04702057 0.08876327 0.384 146 126 129 
0.04946133 0.08876327 0.384 158 136 140 
0.05203727 0.08899442 0.385 160 138 142 
0.05462591 0.08922558 0.386 166 144 146 
0.05707939 0.08922558 0.386 161 140 139 
0.0596871 0.08945674 0.387 164 141 138 
0.06262869 0.09015019 0.39 169 143 141 
0.06527454 0.09038135 0.391 173 147 143 
0.0681064 0.09084366 0.393 168 142 138 
0.07096368 0.09130596 0.395 154 135 131 
0.07384638 0.09176827 0.397 166 150 145 
0.07675452 0.09223059 0.399 164 145 141 
0.07988679 0.09292404 0.402 143 127 124 
0.08285213 0.09338635 0.404 156 140 135 
0.08563146 0.09361751 0.405 145 136 131 
0.09257314 0.09546675 0.413 189 184 182 
0.1350755 0.1354564 0.586 192 187 183 
0.1388002 0.1354564 0.586 198 190 187 
0.1432545 0.1361499 0.589 179 175 180 
0.1479966 0.1370745 0.5930001 247 255 254 
0.1527895 0.1379991 0.597 246 255 253 
0.1571087 0.1384615 0.599 248 255 253 
0.161722 0.1391549 0.6020001 244 255 252 
0.1669234 0.1403107 0.6070001 236 255 251 
0.1721884 0.1414665 0.612 235 255 252 
0.1766537 0.1419288 0.614 233 255 251 
0.1808505 0.1421599 0.615 226 255 250 
0.18506 0.1423911 0.6160001 223 255 252 
0.1892821 0.1426222 0.617 222 255 254 
0.1932039 0.1426222 0.617 207 239 248 
0.1974451 0.1428534 0.618 206 239 254 
0.2016991 0.1430845 0.619 198 230 250 
0.2059657 0.1433157 0.62 202 234 254 
0.2099066 0.1433157 0.62 204 243 252 
0.2145372 0.143778 0.622 203 238 251 
0.2191933 0.1442403 0.624 204 239 254 
0.2235171 0.1444715 0.625 204 239 254 
0.2271258 0.1442403 0.624 202 240 254 
0.2303514 0.143778 0.622 209 236 249 
-0.02165409 0.1382496 0.594 48 46 38 
-0.01778823 0.1375513 0.591 54 48 50 
-0.01400799 0.1373186 0.59 56 63 57 
-0.01025786 0.1373186 0.59 54 61 53 
-0.00652978 0.1377841 0.592 33 31 23 
0.01988947 0.09379559 0.403 34 30 21 
0.02233959 0.0933301 0.401 39 32 24 
0.02470221 0.09263188 0.398 43 34 27 
0.0270267 0.09193364 0.395 48 37 30 
0.02931305 0.09123541 0.392 48 37 30 
0.0316424 0.09076992 0.39 55 44 37 
0.03394631 0.09030443 0.388 73 59 53 
0.03622481 0.08983894 0.386 93 74 72 
0.03857809 0.08960621 0.385 104 83 82 
0.04102521 0.08960621 0.385 118 99 97 
0.04335942 0.08937346 0.384 130 110 111 
0.04580019 0.08937346 0.384 140 120 121 
0.04824096 0.08937346 0.384 160 140 143 
0.05068172 0.08937346 0.384 161 139 143 
0.05326083 0.08960621 0.385 167 145 149 
0.05585264 0.08983894 0.386 168 146 150 
0.05845718 0.09007169 0.387 161 138 137 
0.06107442 0.09030443 0.388 166 143 140 
0.06386814 0.09076992 0.39 164 138 134 
0.06668729 0.09123541 0.392 170 144 140 
0.06953186 0.0917009 0.394 165 144 141 
0.07240186 0.09216639 0.396 157 141 136 
0.07529727 0.09263188 0.398 161 142 138 
0.07841367 0.0933301 0.401 163 149 143 
0.08136629 0.09379559 0.403 143 129 125 
0.08434434 0.09426108 0.405 156 142 136 
0.0871332 0.09449381 0.406 137 132 128 
0.134845 0.1361549 0.585 192 187 183 
0.1385633 0.1361549 0.585 198 190 187 
0.1430113 0.1368531 0.588 187 181 187 
0.147747 0.1377841 0.592 247 255 254 
0.1522777 0.1384823 0.595 246 255 253 
0.1565841 0.1389478 0.597 248 255 253 
0.1614534 0.1398788 0.601 244 255 252 
0.1666484 0.1410425 0.606 236 255 251 
0.171907 0.1422062 0.611 235 255 252 
0.176366 0.1426717 0.613 233 255 251 
0.1805564 0.1429044 0.614 226 255 250 
0.1847595 0.1431372 0.615 223 255 252 
0.1889753 0.1433699 0.6160001 223 255 252 
0.1928907 0.1433699 0.6160001 213 245 252 
0.1971256 0.1436027 0.617 206 239 252 
0.2013732 0.1438354 0.618 197 229 249 
0.2053013 0.1438354 0.618 199 231 253 
0.209568 0.1440682 0.619 207 246 255 
0.2138474 0.1443009 0.62 205 238 253 
0.218842 0.1449991 0.623 203 238 253 
0.2228019 0.1449991 0.623 204 239 254 
0.2267618 0.1449991 0.623 202 240 254 
0.229981 0.1445336 0.6210001 201 239 251 
0.2331748 0.1440682 0.619 132 152 167 
-0.02165409 0.1391935 0.594 43 41 33 
-0.01781833 0.1387248 0.592 56 53 48 
-0.01398425 0.1380218 0.589 54 63 56 
-0.01024047 0.1380218 0.589 53 60 52 
-0.00651875 0.1384905 0.591 27 23 16 
0.01988947 0.09443597 0.403 33 29 22 
0.02233959 0.0939673 0.401 38 31 25 
0.02470221 0.0932643 0.398 44 35 30 
0.0270267 0.0925613 0.395 47 36 29 
0.02938782 0.09209264 0.393 47 36 29 
0.0316424 0.09138964 0.39 55 44 37 
0.03394631 0.09092098 0.388 73 59 53 
0.03622481 0.09045231 0.386 91 72 70 
0.03857809 0.09021799 0.385 103 82 81 
0.04091866 0.08998365 0.384 118 97 96 
0.04335942 0.08998365 0.384 133 111 113 
0.04580019 0.08998365 0.384 139 117 119 
0.04824096 0.08998365 0.384 163 142 149 
0.05081371 0.09021799 0.385 161 139 143 
0.05326083 0.09021799 0.385 167 145 147 
0.05585264 0.09045231 0.386 168 146 148 
0.05845718 0.09068665 0.387 159 137 139 
0.06107442 0.09092098 0.388 166 143 140 
0.06386814 0.09138964 0.39 165 139 135 
0.06668729 0.09185831 0.392 168 142 140 
0.06953186 0.09232698 0.394 162 139 138 
0.07240186 0.09279564 0.396 162 146 141 
0.07529727 0.0932643 0.398 162 146 141 
0.07841367 0.0939673 0.401 160 149 142 
0.08136629 0.09443597 0.403 144 130 126 
0.08434434 0.09490463 0.405 155 141 135 
0.0871332 0.09513897 0.406 151 141 139 
0.1346145 0.1368501 0.5840001 192 187 183 
0.1383265 0.1368501 0.5840001 198 190 187 
0.1427681 0.1375531 0.587 191 185 189 
0.147747 0.1387248 0.592 247 255 254 
0.1520218 0.1391935 0.594 246 255 253 
0.1563219 0.1396621 0.596 249 255 254 
0.1611847 0.1405995 0.6 245 255 252 
0.1663734 0.1417711 0.605 234 254 249 
0.1716256 0.1429428 0.61 235 255 252 
0.1760783 0.1434114 0.612 233 255 251 
0.1805564 0.1438801 0.614 227 255 251 
0.1847595 0.1441144 0.615 226 255 251 
0.1886685 0.1441144 0.615 223 255 252 
0.1928907 0.1443488 0.6160001 212 245 249 
0.1968061 0.1443488 0.6160001 205 238 251 
0.2010474 0.1445831 0.617 196 228 250 
0.2049691 0.1445831 0.617 198 227 253 
0.2092295 0.1448174 0.618 208 247 254 
0.2135025 0.1450518 0.619 205 238 251 
0.2181395 0.1455204 0.6210001 204 237 252 
0.2224443 0.1457548 0.622 206 239 254 
0.2267618 0.1459891 0.623 203 238 253 
0.229981 0.1455204 0.6210001 202 240 254 
0.2331748 0.1450518 0.619 212 243 255 
0.2367262 0.1448174 0.618 82 91 103 
-0.01973303 0.1399014 0.5930001 51 49 41 
-0.01588306 0.1391937 0.59 59 60 54 
-0.0120918 0.1387218 0.588 53 62 53 
-0.008340163 0.1384859 0.587 47 49 40 
0.01865488 0.09531227 0.404 29 25 18 
0.02111771 0.09484043 0.402 33 29 22 
0.02349622 0.09413267 0.399 37 30 24 
0.0258366 0.0934249 0.396 47 36 29 
0.02821044 0.09295306 0.394 44 35 28 
0.0304809 0.0922453 0.391 48 37 30 
0.03279753 0.09177345 0.389 63 49 43 
0.03508874 0.09130161 0.387 83 64 62 
0.03745155 0.09106568 0.386 91 72 70 
0.03980165 0.09082977 0.385 105 84 83 
0.04213904 0.09059384 0.384 121 98 97 
0.0445798 0.09059384 0.384 136 112 114 
0.04702057 0.09059384 0.384 152 131 138 
0.04946133 0.09059384 0.384 157 135 139 
0.05203727 0.09082977 0.385 162 140 142 
0.05462591 0.09106568 0.386 165 143 145 
0.05707939 0.09106568 0.386 165 145 146 
0.05984133 0.09153753 0.388 160 139 136 
0.06262869 0.09200937 0.39 162 136 134 
0.06527454 0.0922453 0.391 168 142 138 
0.0681064 0.09271713 0.393 152 126 126 
0.07096368 0.09318898 0.395 151 130 129 
0.0740324 0.09389675 0.398 165 149 144 
0.07694688 0.09436858 0.4 152 136 129 
0.07988679 0.09484043 0.402 135 124 119 
0.08285213 0.09531227 0.404 158 144 140 
0.08563146 0.0955482 0.405 146 132 128 
0.1327585 0.1377781 0.5840001 192 187 185 
0.1364705 0.1377781 0.5840001 193 188 184 
0.1401825 0.1377781 0.5840001 202 194 191 
0.14488 0.1387218 0.588 209 219 222 
0.1496284 0.1396655 0.592 249 255 254 
0.1539095 0.1401374 0.594 249 255 254 
0.158216 0.1406092 0.596 248 255 253 
0.1633634 0.1417888 0.601 244 255 252 
0.1685743 0.1429684 0.606 235 255 252 
0.1735643 0.1439121 0.61 234 255 252 
0.1780233 0.1443839 0.612 234 255 252 
0.1825078 0.1448558 0.614 227 255 251 
0.1864105 0.1448558 0.614 227 255 251 
0.1906231 0.1450917 0.615 220 254 251 
0.1945321 0.1450917 0.615 209 243 251 
0.1987638 0.1453276 0.6160001 202 235 250 
0.2026792 0.1453276 0.6160001 190 218 249 
0.20693 0.1455635 0.617 205 237 255 
0.2111935 0.1457995 0.618 209 245 253 
0.2154697 0.1460354 0.619 206 240 250 
0.2197586 0.1462713 0.62 205 238 253 
0.2240603 0.1465072 0.6210001 206 239 252 
0.2280074 0.1465072 0.6210001 204 239 252 
0.2315811 0.1462713 0.62 203 241 253 
0.2347622 0.1457995 0.618 211 245 255 
0.2386903 0.1457995 0.618 83 88 104 
-0.02165409 0.1410812 0.594 35 36 27 
-0.01778823 0.1403687 0.591 55 56 47 
-0.01393677 0.1394187 0.587 56 61 51 
-0.01017093 0.1389437 0.585 48 56 45 
-0.00644154 0.1387061 0.5840001 23 19 12 
0.01988947 0.09571674 0.403 29 25 18 
0.02233959 0.09524172 0.401 34 30 23 
0.02470221 0.09452919 0.398 43 36 30 
0.0270267 0.09381665 0.395 44 35 30 
0.02938782 0.09334163 0.393 44 35 30 
0.0316424 0.0926291 0.39 53 42 35 
0.03394631 0.09215408 0.388 68 54 48 
0.03622481 0.09167906 0.386 92 70 72 
0.03857809 0.09144155 0.385 97 76 75 
0.04091866 0.09120403 0.384 112 89 88 
0.04335942 0.09120403 0.384 135 112 111 
0.04580019 0.09120403 0.384 146 122 124 
0.04824096 0.09120403 0.384 159 137 141 
0.05081371 0.09144155 0.385 162 140 142 
0.05326083 0.09144155 0.385 160 138 140 
0.05585264 0.09167906 0.386 167 145 147 
0.05845718 0.09191657 0.387 160 140 141 
0.06123183 0.0923916 0.389 161 140 137 
0.06403191 0.09286661 0.391 166 140 138 
0.06668729 0.09310412 0.392 156 130 130 
0.06953186 0.09357914 0.394 155 132 129 
0.07258469 0.09429167 0.397 154 138 133 
0.07548647 0.09476669 0.399 142 126 121 
0.07841367 0.09524172 0.401 140 128 126 
0.08136629 0.09571674 0.403 137 126 121 
0.08413608 0.09595425 0.404 151 139 137 
0.0871332 0.09642927 0.406 177 161 158 
0.1343839 0.1384686 0.583 194 186 183 
0.1380896 0.1384686 0.583 198 190 187 
0.1425249 0.1391812 0.586 198 194 195 
0.1469983 0.1398937 0.589 246 255 254 
0.1515099 0.1406062 0.592 248 255 253 
0.155535 0.1408437 0.5930001 249 255 254 
0.1603788 0.1417938 0.597 246 255 253 
0.1658234 0.1432188 0.603 237 255 251 
0.1707816 0.1441689 0.6070001 235 255 252 
0.1755029 0.1448814 0.61 233 255 253 
0.1799683 0.1453564 0.612 234 255 254 
0.1841587 0.1455939 0.613 232 255 254 
0.1883618 0.1458315 0.614 225 255 252 
0.1925776 0.146069 0.615 213 246 250 
0.1964866 0.146069 0.615 206 240 250 
0.2007215 0.1463065 0.6160001 192 223 250 
0.2046369 0.1463065 0.6160001 192 221 249 
0.2085523 0.1463065 0.6160001 211 247 255 
0.2128126 0.146544 0.617 205 241 251 
0.2170857 0.1467815 0.618 205 238 251 
0.2213714 0.147019 0.619 211 244 255 
0.2256698 0.1472565 0.62 202 237 250 
0.2296107 0.1472565 0.62 204 239 252 
0.2331748 0.147019 0.619 204 239 252 
0.2367262 0.1467815 0.618 216 250 255 
0.2410437 0.147019 0.619 86 92 105 
-0.02161763 0.141786 0.5930001 57 64 56 
-0.01775813 0.1410687 0.59 54 56 47 
-0.01391302 0.1401123 0.586 55 60 48 
-0.01013615 0.139395 0.583 49 54 44 
-0.00639742 0.1386777 0.58 23 19 12 
0.01988947 0.09635712 0.403 28 24 17 
0.02233959 0.09587892 0.401 33 25 22 
0.02470221 0.09516162 0.398 40 33 27 
0.0270267 0.09444433 0.395 44 35 30 
0.02938782 0.09396613 0.393 41 32 27 
0.0316424 0.09324883 0.39 50 39 32 
0.03394631 0.09277063 0.388 65 49 46 
0.03622481 0.09229243 0.386 90 68 70 
0.03857809 0.09205333 0.385 96 75 74 
0.04091866 0.09181423 0.384 109 88 87 
0.04335942 0.09181423 0.384 136 110 110 
0.04580019 0.09181423 0.384 142 119 118 
0.04824096 0.09181423 0.384 156 132 136 
0.05081371 0.09205333 0.385 164 142 144 
0.05326083 0.09205333 0.385 159 137 139 
0.05585264 0.09229243 0.386 167 147 148 
0.05845718 0.09253153 0.387 159 139 140 
0.06123183 0.09300973 0.389 160 139 136 
0.06403191 0.09348793 0.391 166 140 138 
0.06668729 0.09372703 0.392 154 130 132 
0.06970833 0.09444433 0.395 146 123 120 
0.07258469 0.09492252 0.397 151 135 130 
0.07548647 0.09540072 0.399 136 120 115 
0.07860921 0.09611802 0.402 138 127 122 
0.08136629 0.09635712 0.403 138 127 122 
0.08413608 0.09659622 0.404 145 135 133 
0.1343839 0.139395 0.583 194 186 183 
0.1380896 0.139395 0.583 198 190 187 
0.1422817 0.1398733 0.585 198 194 195 
0.1467487 0.1405905 0.588 245 255 255 
0.151254 0.1413078 0.591 248 255 253 
0.155535 0.141786 0.5930001 249 255 254 
0.1601101 0.1425033 0.596 248 255 253 
0.1655484 0.1439379 0.6020001 237 255 251 
0.1705002 0.1448943 0.606 235 255 252 
0.1755029 0.1458507 0.61 233 255 253 
0.1799683 0.1463289 0.612 235 255 254 
0.1841587 0.146568 0.613 234 255 254 
0.1883618 0.1468071 0.614 222 255 251 
0.1922645 0.1468071 0.614 213 246 248 
0.1961672 0.1468071 0.614 207 241 251 
0.2003957 0.1470462 0.615 192 222 252 
0.2043047 0.1470462 0.615 195 223 254 
0.2082138 0.1470462 0.615 211 245 255 
0.2124677 0.1472853 0.6160001 204 240 250 
0.2167344 0.1475244 0.617 206 239 252 
0.2210138 0.1477635 0.618 208 241 254 
0.2253059 0.1480026 0.619 204 240 250 
0.2296107 0.1482417 0.62 205 241 251 
0.2331748 0.1480026 0.619 202 237 252 
0.2367262 0.1477635 0.618 205 240 255 
0.2410437 0.1480026 0.619 168 192 204 
-0.02350223 0.1427283 0.5930001 53 66 61 
-0.0196332 0.1420063 0.59 52 62 50 
-0.01577538 0.1410435 0.586 55 57 46 
-0.01196841 0.1400807 0.582 51 56 44 
-0.008212291 0.139118 0.578 42 35 29 
0.0186087 0.0969975 0.403 27 24 19 
0.02111771 0.09675681 0.402 28 23 19 
0.02355511 0.09627543 0.4 37 29 26 
0.02590184 0.09555337 0.397 44 37 31 
0.02821044 0.0948313 0.394 40 33 27 
0.03055885 0.09434993 0.392 44 35 30 
0.03279753 0.09362786 0.389 53 42 35 
0.03508874 0.09314649 0.387 79 60 58 
0.03745155 0.09290579 0.386 92 71 70 
0.03980165 0.09266511 0.385 104 83 82 
0.04213904 0.09242442 0.384 122 98 100 
0.0445798 0.09242442 0.384 137 111 111 
0.04702057 0.09242442 0.384 145 121 123 
0.04946133 0.09242442 0.384 152 130 134 
0.05203727 0.09266511 0.385 160 138 140 
0.05462591 0.09290579 0.386 159 139 140 
0.05707939 0.09290579 0.386 157 140 140 
0.05984133 0.09338717 0.388 157 138 136 
0.06262869 0.09386855 0.39 148 125 122 
0.06527454 0.09410924 0.391 156 133 132 
0.0681064 0.09459061 0.393 147 124 123 
0.07114334 0.09531268 0.396 145 124 121 
0.0740324 0.09579406 0.398 142 126 123 
0.07713925 0.09651612 0.401 146 132 124 
0.07988679 0.09675681 0.402 135 124 117 
0.08285213 0.09723819 0.404 137 128 123 
0.1343839 0.1403214 0.583 194 186 183 
0.1380896 0.1403214 0.583 198 190 187 
0.1420384 0.1405621 0.5840001 199 195 196 
0.1464992 0.1412842 0.587 245 255 255 
0.150998 0.1420063 0.59 249 255 254 
0.1552727 0.1424876 0.592 249 255 254 
0.1598415 0.1432097 0.595 246 255 253 
0.1652734 0.1446538 0.601 237 255 251 
0.1702189 0.1456166 0.605 235 255 252 
0.1749275 0.1463387 0.608 233 255 253 
0.1796742 0.1470607 0.611 236 255 255 
0.1838583 0.1473014 0.612 233 255 253 
0.188055 0.1475421 0.613 222 255 251 
0.1919513 0.1475421 0.613 217 251 250 
0.1961672 0.1477828 0.614 209 243 251 
0.2000698 0.1477828 0.614 192 220 251 
0.2039725 0.1477828 0.614 192 220 255 
0.2078752 0.1477828 0.614 208 241 254 
0.2121228 0.1480235 0.615 204 240 248 
0.2163831 0.1482642 0.6160001 204 240 250 
0.2206562 0.1485049 0.617 205 240 253 
0.2249419 0.1487456 0.618 207 246 253 
0.2292403 0.1489862 0.619 203 242 251 
0.2331748 0.1489862 0.619 200 238 252 
0.2367262 0.1487456 0.618 201 239 253 
0.2410437 0.1489862 0.619 212 247 255 
0.2453739 0.1492269 0.62 86 92 103 
-0.02150827 0.1429438 0.59 59 71 63 
-0.01763774 0.1419747 0.586 52 57 47 
-0.01381805 0.1410056 0.582 52 57 45 
-0.01004922 0.1400365 0.578 48 53 41 
-0.006331239 0.1390674 0.574 23 19 12 
0.01988947 0.09763789 0.403 28 25 20 
0.02233959 0.09715333 0.401 30 25 21 
0.02470221 0.0964265 0.398 39 31 28 
0.02709512 0.09594195 0.396 42 35 29 
0.02938782 0.0952151 0.393 38 29 24 
0.0316424 0.09448828 0.39 43 34 27 
0.03394631 0.09400372 0.388 58 44 40 
0.03622481 0.09351917 0.386 87 67 68 
0.03857809 0.09327689 0.385 96 77 75 
0.04091866 0.09303461 0.384 108 87 86 
0.04335942 0.09303461 0.384 123 101 103 
0.04580019 0.09303461 0.384 135 112 111 
0.04824096 0.09303461 0.384 141 119 121 
0.05081371 0.09327689 0.385 155 133 137 
0.05326083 0.09327689 0.385 152 129 137 
0.05585264 0.09351917 0.386 156 139 139 
0.05845718 0.09376144 0.387 153 133 134 
0.06123183 0.094246 0.389 154 135 131 
0.06403191 0.09473056 0.391 157 136 133 
0.06668729 0.09497283 0.392 152 131 130 
0.06970833 0.09569966 0.395 147 126 123 
0.07258469 0.09618422 0.397 140 119 118 
0.07567565 0.09691105 0.4 140 124 119 
0.07860921 0.09739561 0.402 134 123 116 
0.08136629 0.09763789 0.403 136 127 120 
0.1343839 0.1412479 0.583 193 185 182 
0.1380896 0.1412479 0.583 196 188 185 
0.1420384 0.1414901 0.5840001 200 195 193 
0.1464992 0.142217 0.587 242 255 254 
0.1507421 0.1427015 0.589 249 255 254 
0.1550104 0.1431861 0.591 249 255 254 
0.1595729 0.1439129 0.594 246 255 253 
0.1649984 0.1453666 0.6 237 255 251 
0.1699375 0.1463357 0.604 236 255 253 
0.1746398 0.1470625 0.6070001 233 255 253 
0.1793802 0.1477894 0.61 236 255 255 
0.1838583 0.1482739 0.612 233 255 253 
0.188055 0.1485162 0.613 222 255 251 
0.1919513 0.1485162 0.613 221 255 252 
0.1958477 0.1485162 0.613 212 247 250 
0.199744 0.1485162 0.613 193 219 248 
0.2036403 0.1485162 0.613 190 215 249 
0.2075367 0.1485162 0.613 205 238 253 
0.2117779 0.1487585 0.614 205 244 249 
0.2160318 0.1490007 0.615 205 241 251 
0.2202985 0.149243 0.6160001 204 240 250 
0.2249419 0.1497276 0.618 210 249 254 
0.2292403 0.1499698 0.619 204 243 252 
0.2327981 0.1497276 0.618 202 240 252 
0.2367262 0.1497276 0.618 201 239 251 
0.2410437 0.1499698 0.619 203 241 253 
0.2453739 0.1502121 0.62 168 188 203 
-0.02143536 0.1433936 0.588 55 67 59 
-0.01757754 0.1424181 0.5840001 52 57 47 
-0.01374683 0.1411988 0.5790001 51 56 46 
-0.009997063 0.1402233 0.575 48 53 41 
-0.006298149 0.1392479 0.571 23 19 12 
0.0186087 0.09827828 0.403 29 26 21 
0.02111771 0.0980344 0.402 27 24 19 
0.02355511 0.09754667 0.4 36 28 25 
0.02590184 0.09681507 0.397 42 35 29 
0.02828204 0.09632733 0.395 37 30 24 
0.03055885 0.09559574 0.392 40 33 27 
0.03288185 0.095108 0.39 48 39 32 
0.03508874 0.09437641 0.387 70 54 51 
0.03745155 0.09413254 0.386 87 71 68 
0.03980165 0.09388867 0.385 102 83 81 
0.04213904 0.0936448 0.384 115 93 95 
0.0445798 0.0936448 0.384 126 104 106 
0.04702057 0.0936448 0.384 138 116 118 
0.04946133 0.0936448 0.384 139 117 121 
0.05203727 0.09388867 0.385 154 131 139 
0.05462591 0.09413254 0.386 138 121 123 
0.05707939 0.09413254 0.386 149 132 132 
0.05984133 0.09462027 0.388 156 137 135 
0.06262869 0.095108 0.39 159 143 138 
0.06527454 0.09535187 0.391 152 133 131 
0.0681064 0.0958396 0.393 153 134 132 
0.07114334 0.09657121 0.396 145 126 122 
0.07421841 0.0973028 0.399 144 125 123 
0.07713925 0.09779054 0.401 143 129 123 
0.08008552 0.09827828 0.403 128 117 112 
0.1341534 0.1419304 0.582 193 185 182 
0.1378527 0.1419304 0.582 196 188 185 
0.1417952 0.1421743 0.583 200 192 191 
0.1462496 0.1429059 0.586 242 255 254 
0.1507421 0.1436375 0.589 249 255 254 
0.1547482 0.1438813 0.59 249 255 254 
0.1595729 0.1448568 0.594 246 255 253 
0.1647234 0.1460761 0.599 238 255 252 
0.1696562 0.1470516 0.603 234 255 252 
0.174352 0.1477832 0.606 233 255 253 
0.1790861 0.1485148 0.609 236 255 255 
0.1835578 0.1490025 0.611 229 255 251 
0.1877482 0.1492464 0.612 222 255 251 
0.1916382 0.1492464 0.612 222 255 251 
0.1955282 0.1492464 0.612 213 248 251 
0.199744 0.1494903 0.613 190 215 247 
0.2036403 0.1494903 0.613 189 214 248 
0.2075367 0.1494903 0.613 204 237 252 
0.211433 0.1494903 0.613 209 245 251 
0.2153293 0.1494903 0.613 207 243 253 
0.2199409 0.149978 0.615 205 241 251 
0.2245779 0.1504657 0.617 214 253 255 
0.22887 0.1507096 0.618 205 244 249 
0.2327981 0.1507096 0.618 204 243 252 
0.2367262 0.1507096 0.618 201 239 251 
0.2410437 0.1509535 0.619 203 241 253 
0.2453739 0.1511973 0.62 213 244 255 
-0.0232248 0.143837 0.586 57 71 62 
-0.01943354 0.1433461 0.5840001 49 58 49 
-0.01561386 0.1423643 0.58 48 55 47 
-0.01182446 0.141137 0.575 50 55 45 
-0.008112834 0.1401552 0.571 42 38 31 
-0.004459908 0.1394189 0.568 29 22 14 
0.0186087 0.09891866 0.403 27 27 23 
0.02111771 0.0986732 0.402 26 26 22 
0.02355511 0.09818228 0.4 36 28 25 
0.02596709 0.09769138 0.398 42 35 29 
0.02828204 0.09695501 0.395 36 29 23 
0.03063681 0.0964641 0.393 39 32 26 
0.03288185 0.09572773 0.39 46 37 32 
0.03508874 0.09499136 0.387 66 50 47 
0.03745155 0.0947459 0.386 86 70 67 
0.03980165 0.09450045 0.385 99 83 80 
0.04213904 0.09425499 0.384 114 94 95 
0.0445798 0.09425499 0.384 120 98 100 
0.04702057 0.09425499 0.384 135 115 116 
0.04946133 0.09425499 0.384 126 106 109 
0.05203727 0.09450045 0.385 150 130 133 
0.05462591 0.0947459 0.386 148 133 134 
0.05707939 0.0947459 0.386 144 129 128 
0.05984133 0.09523682 0.388 148 132 129 
0.06262869 0.09572773 0.39 149 133 128 
0.06527454 0.09597319 0.391 149 132 132 
0.0682797 0.09670956 0.394 153 139 135 
0.07132299 0.09744592 0.397 150 134 129 
0.07421841 0.09793683 0.399 137 121 118 
0.07733162 0.0986732 0.402 139 128 121 
0.08008552 0.09891866 0.403 130 118 116 
0.1339229 0.1426098 0.581 193 185 182 
0.1378527 0.1428552 0.582 196 188 185 
0.141552 0.1428552 0.582 200 192 191 
0.146 0.1435916 0.585 242 255 254 
0.1504862 0.144328 0.588 248 255 253 
0.1544859 0.1445734 0.589 247 255 254 
0.1593042 0.1455553 0.5930001 246 255 253 
0.1644484 0.1467825 0.598 238 255 252 
0.1693748 0.1477644 0.6020001 234 255 254 
0.174352 0.1487462 0.606 233 255 253 
0.178792 0.1492371 0.608 236 255 255 
0.1832574 0.149728 0.61 228 255 250 
0.1874414 0.1499734 0.611 222 255 251 
0.1916382 0.1502189 0.612 223 255 252 
0.1955282 0.1502189 0.612 213 250 253 
0.1994182 0.1502189 0.612 192 218 247 
0.2033081 0.1502189 0.612 187 212 246 
0.2071981 0.1502189 0.612 203 233 252 
0.2110881 0.1502189 0.612 212 246 252 
0.2149781 0.1502189 0.612 207 243 253 
0.2195833 0.1507098 0.614 207 243 253 
0.2242139 0.1512007 0.6160001 214 254 255 
0.2284997 0.1514462 0.617 207 247 249 
0.2327981 0.1516916 0.618 205 244 251 
0.2367262 0.1516916 0.618 201 240 249 
0.2410437 0.1519371 0.619 204 242 254 
0.2457697 0.152428 0.6210001 203 241 253 
0.2505211 0.1529189 0.623 120 130 146 
-0.02132599 0.1445212 0.585 54 61 55 
-0.01736685 0.1425448 0.577 50 58 47 
-0.01362811 0.1418037 0.574 49 54 42 
-0.009944905 0.1413096 0.572 48 53 43 
-0.006287119 0.1408155 0.5700001 23 21 13 
-0.002659432 0.1405685 0.569 30 23 15 
0.02117024 0.09955904 0.403 26 26 20 
0.02361399 0.09906495 0.401 33 30 25 
0.02596709 0.09832381 0.398 37 32 28 
0.02828204 0.09758268 0.395 33 28 24 
0.03055885 0.09684154 0.392 37 29 26 
0.03288185 0.09634745 0.39 44 37 31 
0.03517941 0.09585337 0.388 62 51 46 
0.03745155 0.09535927 0.386 84 69 68 
0.03980165 0.09511223 0.385 100 80 81 
0.04213904 0.09486518 0.384 110 90 91 
0.0445798 0.09486518 0.384 115 98 98 
0.04702057 0.09486518 0.384 126 109 109 
0.04959014 0.09511223 0.385 126 104 106 
0.05203727 0.09511223 0.385 150 128 130 
0.05448439 0.09511223 0.385 151 134 136 
0.05707939 0.09535927 0.386 147 131 128 
0.05984133 0.09585337 0.388 142 126 123 
0.06262869 0.09634745 0.39 147 131 128 
0.06544148 0.09684154 0.392 147 132 131 
0.0682797 0.09733564 0.394 148 133 132 
0.07114334 0.09782972 0.396 144 130 126 
0.07421841 0.09857085 0.399 136 120 115 
0.07713925 0.09906495 0.401 137 126 121 
0.07988679 0.09931199 0.402 131 119 117 
0.1327704 0.1422978 0.576 192 184 181 
0.1366684 0.1425448 0.577 196 188 185 
0.1408224 0.1430389 0.5790001 201 192 195 
0.1455009 0.1440271 0.583 246 255 255 
0.1502302 0.1450153 0.587 246 255 253 
0.1544859 0.1455094 0.589 246 255 254 
0.1590356 0.1462505 0.592 246 255 253 
0.1638984 0.1472387 0.596 237 255 249 
0.1685308 0.1479798 0.599 231 255 253 
0.1729135 0.1484739 0.601 229 255 251 
0.1776158 0.149215 0.604 235 255 255 
0.1820557 0.1497091 0.606 231 255 253 
0.1868279 0.1504503 0.609 225 255 252 
0.1916382 0.1511914 0.612 222 255 252 
0.1958477 0.1514384 0.613 214 251 252 
0.1994182 0.1511914 0.612 196 222 251 
0.2029759 0.1509443 0.611 189 209 245 
0.2068595 0.1509443 0.611 198 230 250 
0.2107431 0.1509443 0.611 212 249 252 
0.2149781 0.1511914 0.612 204 243 252 
0.2192256 0.1514384 0.613 203 242 251 
0.2238499 0.1519325 0.615 214 253 255 
0.2284997 0.1524266 0.617 214 254 254 
0.2327981 0.1526737 0.618 204 243 250 
0.2374923 0.1531677 0.62 204 243 250 
0.2418226 0.1534148 0.6210001 204 245 253 
0.2461655 0.1536618 0.622 201 242 250 
0.2505211 0.1539089 0.623 207 235 250 
-0.01916733 0.1432131 0.576 48 57 48 
-0.01547926 0.1429644 0.575 49 57 46 
-0.0117422 0.1419699 0.571 47 55 44 
-0.008098627 0.1417213 0.5700001 41 42 36 
-0.00446776 0.1414726 0.569 27 23 14 
-0.0008496073 0.141224 0.568 31 22 13 
0.02117024 0.1001994 0.403 26 26 20 
0.02361399 0.09970216 0.401 32 29 24 
0.02596709 0.09895626 0.398 34 31 26 
0.02828204 0.09821035 0.395 30 25 21 
0.03063681 0.09771308 0.393 35 30 26 
0.03288185 0.09696718 0.39 42 38 31 
0.03517941 0.09646991 0.388 61 50 45 
0.03745155 0.09597264 0.386 82 67 66 
0.03980165 0.09572402 0.385 96 80 77 
0.04213904 0.09547538 0.384 106 89 89 
0.0445798 0.09547538 0.384 110 93 93 
0.04702057 0.09547538 0.384 116 101 100 
0.04959014 0.09572402 0.385 125 105 106 
0.05203727 0.09572402 0.385 147 127 128 
0.05448439 0.09572402 0.385 142 125 127 
0.05707939 0.09597264 0.386 143 128 127 
0.05984133 0.09646991 0.388 135 121 117 
0.06262869 0.09696718 0.39 137 121 118 
0.06544148 0.09746445 0.392 141 129 129 
0.0682797 0.09796172 0.394 148 133 132 
0.07132299 0.09870762 0.397 139 128 123 
0.07421841 0.09920488 0.399 134 120 116 
0.07713925 0.09970216 0.401 133 121 119 
0.07988679 0.09995078 0.402 132 120 118 
0.1327704 0.1432131 0.576 190 185 181 
0.1366684 0.1434617 0.577 198 190 187 
0.1405791 0.1437103 0.578 201 193 192 
0.1455009 0.1449535 0.583 245 255 255 
0.1502302 0.145948 0.587 246 255 253 
0.1542236 0.1461967 0.588 246 255 254 
0.1587669 0.1469426 0.591 249 255 254 
0.1636234 0.1479371 0.595 238 255 250 
0.1682494 0.148683 0.598 227 255 251 
0.1726258 0.1491803 0.6 231 255 253 
0.1773217 0.1499262 0.603 238 255 255 
0.1817553 0.1504235 0.605 231 255 253 
0.1865211 0.1511694 0.608 225 255 250 
0.1913251 0.1519152 0.611 223 255 252 
0.1955282 0.1521639 0.612 216 254 252 
0.1994182 0.1521639 0.612 196 222 251 
0.2026437 0.1516666 0.61 190 208 242 
0.2068595 0.1519152 0.611 198 230 250 
0.2103982 0.1516666 0.61 213 250 253 
0.2146268 0.1519152 0.611 203 242 251 
0.218868 0.1521639 0.612 203 242 251 
0.223486 0.1526611 0.614 211 250 255 
0.2281293 0.1531584 0.6160001 216 255 255 
0.2324214 0.1534071 0.617 205 244 249 
0.2371093 0.1539043 0.619 207 246 253 
0.2414331 0.1541529 0.62 204 245 253 
0.2457697 0.1544016 0.6210001 202 243 251 
0.2505211 0.1548989 0.623 202 240 252 
-0.02282847 0.1441284 0.576 55 62 54 
-0.01910077 0.1436279 0.574 48 57 48 
-0.01539849 0.1431275 0.572 48 55 47 
-0.01172164 0.142627 0.5700001 47 54 46 
-0.008070209 0.1421266 0.568 43 44 38 
-0.004459908 0.1421266 0.568 29 22 14 
-0.0008496073 0.1421266 0.568 31 22 13 
0.02239529 0.1005896 0.402 25 25 19 
0.02482634 0.1000891 0.4 33 30 25 
0.02716354 0.09933846 0.397 30 27 22 
0.0294626 0.0985878 0.394 30 25 21 
0.03180466 0.09808736 0.392 36 31 27 
0.03403381 0.09733669 0.389 48 39 34 
0.03631866 0.09683624 0.387 67 58 53 
0.03867829 0.09658601 0.386 84 68 65 
0.04102521 0.0963358 0.385 94 80 76 
0.04335942 0.09608557 0.384 107 92 93 
0.04580019 0.09608557 0.384 111 99 99 
0.04824096 0.09608557 0.384 116 101 100 
0.05081371 0.0963358 0.385 129 108 107 
0.05326083 0.0963358 0.385 144 124 125 
0.05585264 0.09658601 0.386 134 119 118 
0.05845718 0.09683624 0.387 135 124 119 
0.06123183 0.09733669 0.389 136 122 118 
0.06403191 0.09783714 0.391 133 118 119 
